ncols        175
nrows        32
xllcorner    632902.488
yllcorner    5179849.379
cellsize     100.000000000000
NODATA_value  -9999
3207.7080078125 3206.427978515625 3204.14404296875 3190.0458984375 3194.971923828125 3175.111083984375 3147.9970703125 3124.743896484375 3108.735107421875 3092.10888671875 3093.02099609375 3092.39990234375 3098.33203125 3115.39697265625 3153.214111328125 3166.80908203125 3136.569091796875 3144.39990234375 3166.654052734375 3193.904052734375 3141.655029296875 3141.2890625 3125.883056640625 3078.22509765625 3040.554931640625 3042.9951171875 2998.35107421875 2950.64697265625 2922.343994140625 2894.967041015625 2875.412109375 2861.260986328125 2850.363037109375 2856.45703125 2898.31103515625 2972.054931640625 2972.799072265625 2954.547119140625 2931.52099609375 2906.431884765625 2885.091064453125 2855.180908203125 2842.846923828125 2814.949951171875 2777.41796875 2761.175048828125 2758.493896484375 2766.37109375 2772.033935546875 2771.251953125 2764.98095703125 2776.37109375 2795.597900390625 2810.2958984375 2822.6279296875 2855.0390625 2868.967041015625 2882.219970703125 2894.655029296875 2911.760986328125 2969.174072265625 3070.5830078125 3131.926025390625 3123.196044921875 3134.43701171875 3149.580078125 3159.652099609375 3165.511962890625 3198.1220703125 3194.7548828125 3195.298095703125 3189.91796875 3180.37890625 3178.157958984375 3177.909912109375 3183.947021484375 3202.322021484375 3242.199951171875 3314.08203125 3299.10400390625 3263.43994140625 3244.846923828125 3222.52392578125 3198.029052734375 3175.68505859375 3155.544921875 3108.428955078125 3062.35107421875 3006.8310546875 2954.572021484375 2906.35791015625 2864.052978515625 2810.199951171875 2752.281005859375 2727.73095703125 2751.31201171875 2804.702880859375 2856.0458984375 2907.98388671875 2964.700927734375 3029.574951171875 3021.85400390625 2959.0419921875 2889.722900390625 2816.62109375 2747.39794921875 2730.347900390625 2727.35302734375 2721.0009765625 2718.26708984375 2700.076904296875 2733.0830078125 2793.947998046875 2830.4208984375 2840.27294921875 2864.593994140625 2896.56396484375 2916.22998046875 2943.698974609375 2983.577880859375 3036.589111328125 3088.346923828125 3147.075927734375 3241.864013671875 3357.14599609375 3430.8310546875 3430.89599609375 3389.197021484375 3363.305908203125 3363.76806640625 3384.325927734375 3312.737060546875 3245.535888671875 3201.251953125 3156.8759765625 3116.35498046875 3079.39697265625 3054.783935546875 3028.62109375 2999.094970703125 2952.297119140625 2904.85009765625 2864.712890625 2857.41796875 2854.416015625 2854.498046875 2871.114990234375 2900.243896484375 2925.22705078125 2948.02001953125 2966.33203125 2980.763916015625 2982.5830078125 2986.10205078125 2995.697998046875 3025.173095703125 3044.762939453125 3047.669921875 3047.3310546875 3050.574951171875 3058.819091796875 3078.6669921875 3093.9970703125 3101.81396484375 3131.115966796875 3204.777099609375 3268.205078125 3283.550048828125 3268.862060546875 3299.45703125 3344.7109375 3389.072021484375 3412.528076171875 3375.635986328125 3280.154052734375
3207.52099609375 3183.10205078125 3162.077880859375 3138.510986328125 3148.431884765625 3166.529052734375 3120.406982421875 3120.8798828125 3115.827880859375 3111.028076171875 3119.074951171875 3122.2041015625 3140.68798828125 3179.174072265625 3205.197998046875 3149.544921875 3096.85400390625 3070.362060546875 3097.111083984375 3143.990966796875 3093.8369140625 3083.300048828125 3078.451904296875 3044.0380859375 3006.537109375 3004.135009765625 2950.294921875 2919.699951171875 2896.0791015625 2853.087890625 2827.756103515625 2807.0830078125 2793.264892578125 2801.825927734375 2848.048095703125 2921.48291015625 2925.489990234375 2928.20703125 2913.091064453125 2903.802001953125 2868.758056640625 2841.10791015625 2823.237060546875 2794.422119140625 2765.135986328125 2760.095947265625 2771.697021484375 2777.56103515625 2782.68505859375 2780.781982421875 2776.62890625 2786.823974609375 2808.787109375 2830.573974609375 2851.85302734375 2885.55810546875 2898.14306640625 2907.590087890625 2915.89697265625 2925.27001953125 2991.697998046875 3086.748046875 3157.9169921875 3150.427001953125 3155.531005859375 3172.81689453125 3183.47607421875 3189.697021484375 3217.26806640625 3211.81201171875 3209.135009765625 3200.4990234375 3200.364013671875 3199.889892578125 3201.5849609375 3207.287109375 3223.4130859375 3269.235107421875 3234.577880859375 3212.591064453125 3193.031982421875 3172.7060546875 3144.235107421875 3123.97802734375 3115.404052734375 3098.886962890625 3075.324951171875 3040.096923828125 2992.945068359375 2946.881103515625 2909.843994140625 2862.361083984375 2797.051025390625 2752.616943359375 2753.194091796875 2787.491943359375 2846.8740234375 2912.027099609375 2964.1240234375 3036.952880859375 3051.31298828125 2980.4150390625 2941.992919921875 2878.907958984375 2806.97802734375 2755.47900390625 2743.6689453125 2733.7119140625 2732.118896484375 2730.77099609375 2718.412109375 2743.93896484375 2810.208984375 2845.2509765625 2870.785888671875 2891.10009765625 2911.47900390625 2934.59912109375 2975.51904296875 3023.93603515625 3081.60302734375 3145.4970703125 3205.830078125 3272.320068359375 3370.717041015625 3462.35498046875 3480.277099609375 3438.3759765625 3435.85498046875 3462.41796875 3409.4599609375 3329.739990234375 3273.56201171875 3233.35791015625 3192.02490234375 3150.77099609375 3115.285888671875 3092.55810546875 3064.39794921875 3026.2041015625 2968.06689453125 2917.966064453125 2893.991943359375 2886.426025390625 2878.200927734375 2881.779052734375 2902.699951171875 2931.201904296875 2945.179931640625 2959.166015625 2983.6220703125 3008.6298828125 3018.303955078125 3026.655029296875 3034.73095703125 3054.342041015625 3072.577880859375 3085.673095703125 3095.9150390625 3105.39697265625 3104.675048828125 3106.428955078125 3116.55908203125 3126.31689453125 3151.133056640625 3205.955078125 3237.657958984375 3262.573974609375 3276.12890625 3313.6689453125 3311.073974609375 3313.26611328125 3339.197998046875 3384.759033203125 3334.388916015625
3083.906005859375 3087.363037109375 3084.132080078125 3111.841064453125 3079.718994140625 3103.712890625 3089.9609375 3078.4599609375 3108.875 3125.861083984375 3156.748046875 3150.64208984375 3180.055908203125 3199.23193359375 3180.291015625 3125.950927734375 3074.81689453125 3044.777099609375 3055.048095703125 3093.243896484375 3080.97998046875 3051.843017578125 3033.52099609375 3011.327880859375 2972.56396484375 2976.696044921875 2928.635009765625 2887.263916015625 2857.087890625 2827.68408203125 2804.0390625 2787.341064453125 2767.656982421875 2764.5439453125 2770.801025390625 2840.52490234375 2891.593994140625 2906.39794921875 2900.285888671875 2876.81005859375 2854.366943359375 2828.866943359375 2816.69091796875 2791.509033203125 2767.68603515625 2768.1708984375 2780.419921875 2788.885986328125 2793.041015625 2793.1298828125 2794.6689453125 2806.05810546875 2830.91796875 2848.450927734375 2877.81103515625 2901.988037109375 2914.236083984375 2924.41796875 2934.0380859375 2950.10888671875 3029.5810546875 3091.797119140625 3158.94189453125 3185.7890625 3183.202880859375 3193.714111328125 3203.14892578125 3208.9619140625 3242.493896484375 3236.158935546875 3231.574951171875 3227.177001953125 3220.071044921875 3219.6669921875 3221.720947265625 3230.242919921875 3244.93994140625 3249.1298828125 3182.175048828125 3146.7880859375 3125.5859375 3110.412109375 3088.787109375 3072.488037109375 3059.14697265625 3040.256103515625 3024.98388671875 3002.4189453125 2971.5791015625 2939.133056640625 2896.555908203125 2843.491943359375 2787.530029296875 2761.763916015625 2783.419921875 2823.179931640625 2884.9970703125 2956.866943359375 3004.985107421875 3078.7509765625 3055.9169921875 2994.972900390625 2953.113037109375 2881.4189453125 2815.797119140625 2773.702880859375 2754.80908203125 2751.236083984375 2748.930908203125 2749.81103515625 2746.26611328125 2754.991943359375 2826.81689453125 2887.162109375 2954.760986328125 2989.469970703125 3000.868896484375 2999.89697265625 3040.589111328125 3094.77099609375 3176.10693359375 3247.93505859375 3277.02392578125 3301.72509765625 3349.783935546875 3437.551025390625 3480.4609375 3494.032958984375 3464.22607421875 3460.7119140625 3437.35009765625 3364.552001953125 3304.458984375 3268.85009765625 3229.345947265625 3190.81201171875 3159.547119140625 3130.09912109375 3106.677978515625 3068.10791015625 3009.596923828125 2960.321044921875 2926.325927734375 2919.64501953125 2905.386962890625 2908.714111328125 2923.489013671875 2951.824951171875 2967.3759765625 2985.52392578125 3009.345947265625 3029.675048828125 3043.123046875 3056.6220703125 3063.113037109375 3079.47509765625 3095.64306640625 3109.873046875 3122.864990234375 3136.06005859375 3143.200927734375 3139.091064453125 3135.7041015625 3144.923095703125 3162.2548828125 3177.4580078125 3186.7060546875 3197.97607421875 3208.718994140625 3224.049072265625 3239.3740234375 3255.139892578125 3277.64111328125 3314.471923828125 3351.281005859375
3023.320068359375 3006.931884765625 2998.909912109375 3015.5009765625 3024.0849609375 3045.738037109375 3035.922119140625 3031.6640625 3023.84912109375 3070.5 3107.51611328125 3091.133056640625 3111.2099609375 3123.305908203125 3130.10302734375 3085.60498046875 3055.705078125 3036.5791015625 3031.802001953125 3017.721923828125 3015 3001.294921875 2990.426025390625 2974.0791015625 2948.719970703125 2928.40087890625 2899.47705078125 2855.549072265625 2825.083984375 2796.781982421875 2780.928955078125 2767.948974609375 2743.9599609375 2717.030029296875 2728.697998046875 2801.635009765625 2850.02587890625 2869.080078125 2857.678955078125 2839.5810546875 2821.656982421875 2810.26708984375 2806.81298828125 2787.0009765625 2770.968994140625 2771.550048828125 2784.305908203125 2795.467041015625 2805.569091796875 2812.18701171875 2817.844970703125 2824.19189453125 2849.98095703125 2871.875 2890.3349609375 2909.50390625 2924.075927734375 2940.52392578125 2960.72900390625 2979.51904296875 3066.673095703125 3132.677978515625 3180.1669921875 3212.93603515625 3210.02392578125 3216.555908203125 3225.927978515625 3232.008056640625 3278.866943359375 3272.031005859375 3271.498046875 3265.242919921875 3260.966064453125 3252.47900390625 3244.072021484375 3247.06396484375 3265.85498046875 3247.240966796875 3198.138916015625 3135.537109375 3101.416015625 3080.576904296875 3059.6689453125 3042.43603515625 3021.614990234375 3007.60205078125 2992.714111328125 2975.52197265625 2948.029052734375 2911.376953125 2871.593017578125 2827.751953125 2785.7041015625 2777.5 2800.489990234375 2846.277099609375 2915.820068359375 2981.95703125 3030.5380859375 3098.012939453125 3091.6220703125 3038.55908203125 2975.18798828125 2895.44091796875 2825.14892578125 2784.739013671875 2773.923095703125 2770.968017578125 2768.180908203125 2779.596923828125 2777.0859375 2789.696044921875 2843.93701171875 2902.613037109375 2944.7451171875 2999.27294921875 3075.985107421875 3106.4189453125 3132.404052734375 3161.06591796875 3194.998046875 3220.22509765625 3250.156982421875 3277.389892578125 3327.06005859375 3419.02587890625 3420.7041015625 3398.260986328125 3379.68310546875 3376.10498046875 3417.010986328125 3398.697021484375 3342.947998046875 3304.090087890625 3264.053955078125 3222.7119140625 3199.492919921875 3170.73193359375 3141.947021484375 3104.277099609375 3056.14892578125 3005.677978515625 2967.552001953125 2961.631103515625 2942.194091796875 2936.90087890625 2942.10205078125 2950.8359375 2975.446044921875 3001.368896484375 3027.031982421875 3044.841064453125 3058.509033203125 3065.341064453125 3076.5380859375 3095.803955078125 3114.7451171875 3129.322021484375 3140.053955078125 3149.033935546875 3157.001953125 3159.75390625 3159.02099609375 3164.052001953125 3174.06201171875 3188.931884765625 3200.84912109375 3206.239013671875 3210.243896484375 3220.52490234375 3235.5869140625 3247.759033203125 3261.51708984375 3279.08203125 3307.10888671875
2996.10302734375 2975.783935546875 2948.072998046875 2940.405029296875 2956.343017578125 2992.802978515625 2986.970947265625 2957.3701171875 2949.5458984375 2986.70703125 3036.887939453125 3044.342041015625 3048.39501953125 3063.60302734375 3080.575927734375 3042.784912109375 3019.179931640625 3024.09912109375 3008.68310546875 2981.136962890625 2955.97705078125 2941.305908203125 2931.527099609375 2920.56396484375 2922.4169921875 2901.159912109375 2876.470947265625 2852.302978515625 2811.569091796875 2774.833984375 2746.952880859375 2730.376953125 2701.339111328125 2669.597900390625 2702.366943359375 2740.177001953125 2773.33203125 2798.967041015625 2821.56689453125 2808.239990234375 2796.489990234375 2782.51708984375 2791.074951171875 2778.6650390625 2770.260009765625 2773.992919921875 2791.916015625 2807.784912109375 2821.0810546875 2837.153076171875 2843.72705078125 2837.761962890625 2862.14697265625 2885.988037109375 2896.201904296875 2916.455078125 2928.39990234375 2948.6689453125 2979.472900390625 3007.0791015625 3039.072998046875 3115.114990234375 3192.675048828125 3234.7890625 3241.77392578125 3240.739990234375 3240.577880859375 3251.18896484375 3315.375 3318.196044921875 3313.739013671875 3330.4189453125 3323.174072265625 3297.22900390625 3271.4599609375 3265.346923828125 3257.052978515625 3185.5029296875 3151.39990234375 3129.89697265625 3093.444091796875 3071.75390625 3047.77392578125 3023.93603515625 3000.43310546875 2986.011962890625 2967.096923828125 2946.80908203125 2922.029052734375 2889.529052734375 2851.511962890625 2815.39892578125 2790.337890625 2798.632080078125 2811.98193359375 2858.468994140625 2911.741943359375 2965.10205078125 3041.364990234375 3121.37109375 3116.4609375 3058.51904296875 2980.462890625 2906.60498046875 2840.446044921875 2811.02099609375 2797.903076171875 2787.79296875 2787.7080078125 2804.73095703125 2804.9541015625 2812.0859375 2873.6240234375 2921.0859375 2964.256103515625 3004.591064453125 3041.277099609375 3067.787109375 3098.156005859375 3128.48193359375 3160.18896484375 3195.875 3230.780029296875 3280.94189453125 3350.455078125 3352.843994140625 3320.383056640625 3314.110107421875 3315.264892578125 3324.134033203125 3357.389892578125 3416.26806640625 3403.31103515625 3365.64404296875 3322.59912109375 3271.886962890625 3242.30810546875 3210.2919921875 3176.98095703125 3143.212890625 3095.656005859375 3043.79296875 2999.68603515625 2987.320068359375 2984.030029296875 2987.322998046875 2982.05810546875 2985.47705078125 2987.6640625 3000.4951171875 3025.93798828125 3050.02392578125 3060.77392578125 3074.616943359375 3090.447021484375 3105.2529296875 3118.264892578125 3131.215087890625 3143.464111328125 3151.68994140625 3160.221923828125 3167.22998046875 3171.2939453125 3175.615966796875 3182.136962890625 3195.49609375 3208.70703125 3215.968994140625 3220.199951171875 3232.001953125 3242.389892578125 3251.04296875 3260.6650390625 3271.157958984375 3286.093994140625
2980.218017578125 2946.364013671875 2920.654052734375 2908.35302734375 2909.10302734375 2919.591064453125 2928.429931640625 2893.069091796875 2893.556884765625 2917.696044921875 2959.159912109375 2985.6220703125 2993.239990234375 2992.712890625 3006.742919921875 2993.324951171875 2997.39404296875 2997.884033203125 2997.125 2980.264892578125 2951.083984375 2917.555908203125 2894.284912109375 2890.406005859375 2861.324951171875 2842.7880859375 2848.00390625 2855.451904296875 2818.492919921875 2778.530029296875 2732.263916015625 2689.39501953125 2650.720947265625 2618.89990234375 2665.760009765625 2682.759033203125 2707.926025390625 2764.81201171875 2789.839111328125 2787.7919921875 2768.180908203125 2754.594970703125 2769.637939453125 2772.798095703125 2777.178955078125 2789.5439453125 2802.0380859375 2823.117919921875 2843.446044921875 2856.469970703125 2861.529052734375 2856.235107421875 2868.7529296875 2885.297119140625 2898.89599609375 2919.93798828125 2936.919921875 2959.962890625 3006.784912109375 3034.702880859375 3056.337890625 3071.9990234375 3125.070068359375 3239.10107421875 3269.909912109375 3265.080078125 3265.4990234375 3280.923095703125 3365.37109375 3386.196044921875 3409.680908203125 3393.27099609375 3333.343017578125 3307.81689453125 3303.66796875 3274.81005859375 3228.580078125 3165.31201171875 3126.64794921875 3099.3359375 3083.43505859375 3064.8349609375 3044.2548828125 3017.47607421875 2989.718017578125 2964.302001953125 2953.240966796875 2937.06591796875 2903.51806640625 2866.22900390625 2841.5390625 2818.096923828125 2804.89794921875 2813.458984375 2830.85595703125 2856.697998046875 2896.23193359375 2943.885986328125 3018.458984375 3105.863037109375 3112.52099609375 3032.52392578125 2973.85791015625 2916.548095703125 2856.385009765625 2833.280029296875 2828.64111328125 2830.283935546875 2826.7880859375 2833.35107421875 2836.299072265625 2850.12109375 2903.583984375 2946.299072265625 2987.154052734375 3024.47509765625 3053.552001953125 3060.56103515625 3091.5048828125 3123.162109375 3152.81494140625 3183.781005859375 3229.865966796875 3301.10009765625 3291.68408203125 3259.12109375 3260.471923828125 3270.18603515625 3281.052978515625 3291.778076171875 3307.013916015625 3332.30810546875 3353.825927734375 3368.87109375 3354.162109375 3311.408935546875 3283.56298828125 3249.655029296875 3205.7041015625 3172.156005859375 3134.135009765625 3060.77001953125 3017.31201171875 2998.080078125 2993.680908203125 2999.819091796875 3016.0859375 3031.532958984375 3034.927001953125 3032.403076171875 3038.4208984375 3055.180908203125 3068.402099609375 3082.85400390625 3097.85302734375 3109.987060546875 3118.248046875 3129.25390625 3141.216064453125 3149.117919921875 3156.85498046875 3166.31298828125 3173.68896484375 3179.047119140625 3186.277099609375 3199.712890625 3213.4150390625 3222.576904296875 3227.781982421875 3239.572021484375 3248.10595703125 3255.864990234375 3263.947998046875 3271.823974609375 3282.638916015625
2976.867919921875 2942.333984375 2901.89599609375 2896.423095703125 2874.385009765625 2866.407958984375 2857.89599609375 2839.6240234375 2839.818115234375 2851.0380859375 2874.239990234375 2892.527099609375 2904.1640625 2922.882080078125 2925.718994140625 2937.48291015625 2952.5859375 2949.60107421875 2962.216064453125 2967.501953125 2928.93408203125 2888.177978515625 2867.825927734375 2856.387939453125 2843.344970703125 2818.446044921875 2816.214111328125 2820.462890625 2805.943115234375 2788.030029296875 2750.5029296875 2685.47900390625 2615.47998046875 2585.221923828125 2620.791015625 2653.7890625 2704.52294921875 2762.912109375 2779.14501953125 2764.06103515625 2749.52490234375 2746.992919921875 2756.14111328125 2771.718017578125 2794.68994140625 2811.337890625 2820.64404296875 2839.4541015625 2865.01708984375 2880.43798828125 2886.39990234375 2881.73193359375 2880.552001953125 2891.929931640625 2921.93408203125 2939.10791015625 2958.1669921875 2980.470947265625 3033.8798828125 3067.7958984375 3080.541015625 3092.841064453125 3128.409912109375 3238.248046875 3291.155029296875 3297.35107421875 3297.386962890625 3318.3759765625 3403.04296875 3478.550048828125 3456.113037109375 3384.85595703125 3325.449951171875 3300.781982421875 3275.81396484375 3247.196044921875 3211.406005859375 3166.291015625 3132.841064453125 3111.555908203125 3093.35400390625 3079.007080078125 3057.98291015625 3030.905029296875 2989.926025390625 2955.3330078125 2935.678955078125 2923.012939453125 2889.0380859375 2855.18603515625 2834.35595703125 2816.85205078125 2817.903076171875 2833.215087890625 2859.01904296875 2888.87109375 2921.947021484375 2955.173095703125 2999.37109375 3076.927978515625 3087.10302734375 2996.10302734375 2954.216064453125 2914.055908203125 2866.179931640625 2854.279052734375 2861.926025390625 2866.51611328125 2867.7958984375 2863.590087890625 2870.64306640625 2892.22705078125 2933.0791015625 2974.748046875 3001.720947265625 3025.52587890625 3048.9619140625 3071.385009765625 3097.89990234375 3124.593994140625 3150.988037109375 3177.4208984375 3216.532958984375 3236.535888671875 3227.9560546875 3238.47509765625 3250.264892578125 3261.55908203125 3272.805908203125 3281.23193359375 3291.7509765625 3314.31396484375 3338.091064453125 3357.367919921875 3370.214111328125 3336.131103515625 3314.14404296875 3282.841064453125 3235.64697265625 3201.39990234375 3181.991943359375 3103.552001953125 3051.541015625 3042.9189453125 3024.55908203125 3022.830078125 3042.02197265625 3060.7890625 3068.18896484375 3080.555908203125 3108.841064453125 3099.989990234375 3085.75 3095.251953125 3108.366943359375 3118.469970703125 3126 3133.0849609375 3142.4169921875 3150.572998046875 3156.222900390625 3164.333984375 3172.657958984375 3179.693115234375 3188.35693359375 3204.5849609375 3217.037109375 3225.10400390625 3232.087890625 3241.968017578125 3250.866943359375 3258.84912109375 3266.9951171875 3274.60400390625 3284.700927734375
2956.006103515625 2933.02392578125 2889.096923828125 2862.905029296875 2835.68994140625 2823.49609375 2808.930908203125 2799.6240234375 2781.9599609375 2784.885009765625 2801.18505859375 2821.18701171875 2839.81298828125 2857.131103515625 2872.031982421875 2896.427001953125 2906.6259765625 2917.4970703125 2929.05810546875 2928.945068359375 2917.2939453125 2869.739013671875 2842.243896484375 2827.74609375 2820.385986328125 2792.445068359375 2767.303955078125 2791.72802734375 2768.818115234375 2735.5390625 2719.4560546875 2670.2880859375 2597.9169921875 2564.66796875 2596.77001953125 2667.260009765625 2729.02001953125 2759.657958984375 2767.867919921875 2755.139892578125 2749.402099609375 2747.303955078125 2759.638916015625 2782.110107421875 2816.323974609375 2837.172119140625 2851.89697265625 2863.321044921875 2885.445068359375 2902.694091796875 2907.508056640625 2907.77392578125 2902.700927734375 2910.261962890625 2948.68798828125 2990.050048828125 3027.81103515625 3069.675048828125 3084.68798828125 3097.634033203125 3094.31689453125 3119.823974609375 3147.762939453125 3215.52001953125 3289.160888671875 3319.262939453125 3326.91796875 3372.10888671875 3448.327880859375 3459.197021484375 3382.64306640625 3312.6279296875 3257.305908203125 3234.919921875 3238.135986328125 3221.916015625 3202.591064453125 3177.06201171875 3173.322998046875 3151.02392578125 3121.697998046875 3106.366943359375 3086.091064453125 3059.0830078125 3003.52099609375 2961.2490234375 2944.52587890625 2912.7099609375 2873.722900390625 2852.111083984375 2836.169921875 2822.988037109375 2843 2868.076904296875 2899.635009765625 2935.7119140625 2962.861083984375 2987.181884765625 3005.02587890625 3048.576904296875 3085.1669921875 3036.617919921875 2991.548095703125 2939.72412109375 2878.5400390625 2870.944091796875 2892.652099609375 2899.638916015625 2910.10009765625 2904.907958984375 2913.123046875 2927.93701171875 2966.764892578125 2998.19091796875 3023.822021484375 3047.10888671875 3070.659912109375 3088.64208984375 3109.612060546875 3129.01708984375 3148.091064453125 3169.5400390625 3191.458984375 3210.6240234375 3227.652099609375 3239.137939453125 3248.055908203125 3260.489013671875 3272.8701171875 3279.697998046875 3288.5830078125 3312.68994140625 3332.93701171875 3347.989990234375 3374.7109375 3358.64404296875 3336.376953125 3313.677001953125 3269.18310546875 3236.68408203125 3219.652099609375 3164.906982421875 3093.013916015625 3086.910888671875 3075.135009765625 3057.076904296875 3075.23291015625 3087.008056640625 3092.5830078125 3105.214111328125 3126.05810546875 3164.135009765625 3169.76611328125 3147.9951171875 3138.589111328125 3137.43310546875 3141.919921875 3144.837890625 3149.47900390625 3155.345947265625 3160.3720703125 3165.385986328125 3171.93994140625 3179.7080078125 3190.89208984375 3205.85693359375 3217.569091796875 3224.278076171875 3231.387939453125 3241.251953125 3251.031982421875 3259.906005859375 3268.469970703125 3276.9560546875 3289.0869140625
2949.85400390625 2926.306884765625 2890.9189453125 2828.06689453125 2798.89111328125 2783.282958984375 2773.697021484375 2757.81201171875 2735.905029296875 2725.113037109375 2734.635009765625 2750.508056640625 2768.35302734375 2791.97607421875 2820.805908203125 2843.989990234375 2857.48388671875 2886.468994140625 2899.01806640625 2895.64501953125 2883.39892578125 2830.781982421875 2806.280029296875 2807.39111328125 2800.550048828125 2777.382080078125 2726.845947265625 2713.722900390625 2708.6279296875 2688.718017578125 2669.929931640625 2633.361083984375 2571.02001953125 2544.25390625 2590.675048828125 2699.087890625 2714.427001953125 2731.549072265625 2745.19189453125 2744.90087890625 2750.093017578125 2757.89306640625 2769.281982421875 2793.216064453125 2840.660888671875 2878.739990234375 2888.27490234375 2900.0009765625 2911.383056640625 2928.718994140625 2927.634033203125 2929.507080078125 2925.5869140625 2939.0009765625 3015.9990234375 3098.1689453125 3134.431884765625 3147.10693359375 3128.2900390625 3126.9541015625 3121.011962890625 3147.22705078125 3177.837890625 3231.25390625 3278.2919921875 3318.594970703125 3346.9619140625 3386.035888671875 3444.093017578125 3398.64794921875 3335.64697265625 3255.431884765625 3183.069091796875 3167.01611328125 3162.845947265625 3187.85791015625 3191.367919921875 3201.968017578125 3197.60009765625 3193.885009765625 3185.93603515625 3158.318115234375 3130.5419921875 3094.948974609375 3039.89599609375 2970.572998046875 2927.39892578125 2898.306884765625 2883.912109375 2871.698974609375 2855.902099609375 2845.0419921875 2881.248046875 2921.614990234375 2948.93310546875 2977.406982421875 2997.178955078125 3015.76904296875 3034.06005859375 3063.989013671875 3109.6259765625 3091.159912109375 3051.22607421875 2995.053955078125 2915.402099609375 2893.6650390625 2903.758056640625 2915.195068359375 2930.656982421875 2938.886962890625 2950.472900390625 2969.655029296875 2997.5009765625 3023.073974609375 3045.091064453125 3065.14990234375 3087.31298828125 3103.212890625 3120.762939453125 3133.303955078125 3146.1640625 3161.74609375 3180.93701171875 3202.2470703125 3222.676025390625 3233.5458984375 3242.947021484375 3256.991943359375 3273.037109375 3281.365966796875 3294.702880859375 3316.39306640625 3332.916015625 3348.27001953125 3367.156982421875 3383.60205078125 3354.3701171875 3339.0009765625 3303.133056640625 3276.593994140625 3257.10302734375 3211.320068359375 3133.93896484375 3127.156982421875 3121.81396484375 3117.157958984375 3105.0390625 3114.89208984375 3127.35791015625 3139.052001953125 3150.02490234375 3174.14794921875 3212.30908203125 3262.488037109375 3231.297119140625 3201.986083984375 3176.458984375 3164.068115234375 3160.35888671875 3161.0830078125 3163.6669921875 3167.575927734375 3173.029052734375 3179.626953125 3191.35888671875 3206.60888671875 3218.158935546875 3224.193115234375 3232.738037109375 3242.18798828125 3250.01611328125 3258.72900390625 3268.176025390625 3278.541015625 3292.60498046875
2956.326904296875 2926.75 2881.7060546875 2830.85205078125 2798.25 2778.462890625 2764.537109375 2745.680908203125 2718.26806640625 2688.450927734375 2673.0791015625 2675.943115234375 2696.576904296875 2717.988037109375 2744.2890625 2760.5791015625 2784.81591796875 2814.763916015625 2877.166015625 2876.9580078125 2858.9189453125 2803.843994140625 2780.626953125 2778.672119140625 2766.284912109375 2752.967041015625 2699.72998046875 2664.469970703125 2657.052978515625 2641.033935546875 2622.77587890625 2584.135986328125 2540.673095703125 2514.75 2575.1650390625 2670.0869140625 2701.886962890625 2697.239013671875 2711.705078125 2762.028076171875 2797.215087890625 2798.509033203125 2825.54296875 2852.452880859375 2876.2958984375 2929.47900390625 2936.2958984375 2934.8701171875 2948.47900390625 2949.885009765625 2942.132080078125 2946.510009765625 2946.81201171875 2958.3798828125 3024.3720703125 3153.8701171875 3224.333984375 3180.032958984375 3147.8369140625 3153.597900390625 3179.5390625 3209.02197265625 3228.013916015625 3257.323974609375 3279.35205078125 3316.98193359375 3351.087890625 3382.14697265625 3451.56494140625 3373.174072265625 3269.181884765625 3187.402099609375 3119.35791015625 3087.81591796875 3088.554931640625 3106.610107421875 3127.197021484375 3162.39208984375 3161.052001953125 3176.236083984375 3181.155029296875 3157.006103515625 3130.051025390625 3101.73095703125 3058.258056640625 3011.166015625 2952.221923828125 2915.777099609375 2901.876953125 2891.72900390625 2878.176025390625 2870 2904.34912109375 2945.300048828125 2983.971923828125 3003.0791015625 3017.885986328125 3041.080078125 3067.56689453125 3089.89306640625 3136.97900390625 3151.68994140625 3103.4560546875 3026.27392578125 2947.489990234375 2917.800048828125 2912.31396484375 2915.39599609375 2935.4208984375 2949.634033203125 2963.092041015625 2987.302001953125 3011.669921875 3032.22509765625 3050.801025390625 3073.39794921875 3092.31103515625 3110.777099609375 3127.139892578125 3137.3291015625 3148.906005859375 3156.1630859375 3176.23388671875 3201.009033203125 3216.751953125 3225.010986328125 3236.39599609375 3255.35888671875 3274.681884765625 3283.72802734375 3295.6630859375 3315.445068359375 3338.3359375 3358.52294921875 3391.81103515625 3433.287109375 3376.280029296875 3359.323974609375 3338.365966796875 3318.4951171875 3299.205078125 3243.7919921875 3172.637939453125 3158.489013671875 3155.157958984375 3159.09912109375 3139.402099609375 3138.531005859375 3139.8349609375 3160.656982421875 3173.9580078125 3192.864990234375 3229.5009765625 3289.799072265625 3324.277099609375 3292.216064453125 3253.376953125 3217.510009765625 3209.666015625 3182.988037109375 3167.924072265625 3165.64892578125 3171.76806640625 3179.7890625 3190.592041015625 3206.946044921875 3221.534912109375 3228.75 3235.029052734375 3244.550048828125 3250.2900390625 3256.29296875 3265.72412109375 3278.2548828125 3294.360107421875
2964.115966796875 2931.302001953125 2902.886962890625 2862.284912109375 2819.049072265625 2798.178955078125 2785.070068359375 2760.886962890625 2718.568115234375 2690.64794921875 2654.419921875 2638.56005859375 2636.739990234375 2642.68408203125 2655.527099609375 2671.257080078125 2692.013916015625 2741.19189453125 2805.281982421875 2846.14697265625 2828.093994140625 2746.8369140625 2732.625 2714.133056640625 2703.823974609375 2697.881103515625 2652.714111328125 2637.633056640625 2626.30908203125 2621.64208984375 2589.860107421875 2553.43408203125 2510.06103515625 2491.85400390625 2590.576904296875 2627.4130859375 2655.699951171875 2685.35693359375 2731.48291015625 2800.8759765625 2827.33203125 2827.87890625 2890.284912109375 2912.81689453125 2927.677978515625 2967.587890625 2990.81201171875 2970.458984375 2972.672119140625 2964.758056640625 2955.48095703125 2960.4560546875 2962.384033203125 2975.590087890625 3019.364990234375 3132.5029296875 3259.366943359375 3202.14306640625 3184.989013671875 3195.489990234375 3263.573974609375 3267.51708984375 3271.962890625 3282.804931640625 3290.445068359375 3320.2099609375 3359.427978515625 3392.468017578125 3401.470947265625 3329.236083984375 3249.739013671875 3185.4970703125 3096.56689453125 3045.919921875 3022.22607421875 3021.568115234375 3051.35107421875 3081.18896484375 3077.06201171875 3087.3369140625 3127.552001953125 3137.429931640625 3132.873046875 3098.839111328125 3055.45703125 3031.89306640625 2998.006103515625 2940.2548828125 2919.554931640625 2912.0791015625 2902.070068359375 2895.174072265625 2922.069091796875 2959.39599609375 3013.9541015625 3021.281982421875 3030.805908203125 3060.405029296875 3096.716064453125 3115.501953125 3146.412109375 3174.97607421875 3119.864013671875 3040.339111328125 2966.756103515625 2938.5390625 2930.72802734375 2934.98095703125 2952.259033203125 2960.47900390625 2961.06005859375 2982.291015625 3003.158935546875 3027.764892578125 3056.320068359375 3079.2509765625 3098.90087890625 3113.89697265625 3127.118896484375 3136.818115234375 3142.676025390625 3149.287109375 3169.008056640625 3191.06201171875 3201.635009765625 3219.842041015625 3239.617919921875 3258.6259765625 3274.22412109375 3286.837890625 3306.821044921875 3340.31298828125 3374.72412109375 3406.162109375 3456.97802734375 3496.927978515625 3431.39794921875 3383.74609375 3366.327880859375 3360.60205078125 3357.6240234375 3284.47412109375 3208.422119140625 3191.714111328125 3196.958984375 3228.971923828125 3180.449951171875 3173.787109375 3174.215087890625 3179.56005859375 3192.202880859375 3211.677001953125 3228.572021484375 3255.9609375 3331.5859375 3368.19189453125 3333.027099609375 3305.989990234375 3275.73291015625 3236.214111328125 3189.22802734375 3151.905029296875 3157.06298828125 3179.5029296875 3190.24609375 3206.531005859375 3223.885009765625 3235.114990234375 3239.965087890625 3245.844970703125 3251.114013671875 3254.910888671875 3262.22607421875 3274.257080078125 3293.010009765625
2970.037109375 2936.10302734375 2905.5400390625 2876.541015625 2838.0390625 2821.881103515625 2814.41796875 2776.3740234375 2720.14599609375 2692.77099609375 2668.552978515625 2642.35791015625 2610.0869140625 2598.0009765625 2596.44189453125 2611.7900390625 2630.93603515625 2661.97509765625 2724.777099609375 2782.56103515625 2799.570068359375 2729.412109375 2694.570068359375 2681.60888671875 2666.626953125 2655.75 2628.054931640625 2601.798095703125 2589.51904296875 2577.216064453125 2554.97802734375 2528.695068359375 2497.7060546875 2477.761962890625 2524.97802734375 2609.533935546875 2673.76708984375 2723.323974609375 2799.402099609375 2853.199951171875 2871.989990234375 2881.68603515625 2967.9990234375 2989.85400390625 2980.048095703125 2989.992919921875 2993.833984375 2987.06298828125 2988.06201171875 2983.76904296875 2974.365966796875 2975.678955078125 2976.451904296875 2999.5830078125 3048.862060546875 3136.251953125 3289.696044921875 3251.965087890625 3226.544921875 3258.875 3330.1708984375 3313.363037109375 3310.47412109375 3309.300048828125 3311.14794921875 3335.072021484375 3380.322021484375 3411.493896484375 3361.300048828125 3279.885986328125 3206.673095703125 3139.175048828125 3069.35107421875 3014.385009765625 2990.718994140625 2980.27392578125 3006.406982421875 3009.85009765625 3005.007080078125 3020.1669921875 3047.73388671875 3079.06689453125 3106.431884765625 3111.280029296875 3067.218994140625 3050.85791015625 3023.31591796875 2965.673095703125 2936.74609375 2931.577880859375 2925.2060546875 2915.764892578125 2931.81396484375 2973.830078125 3053.589111328125 3054.77392578125 3057.916015625 3083.196044921875 3118.132080078125 3133.48095703125 3149.529052734375 3179.06591796875 3158.446044921875 3076.05908203125 2986.2880859375 2966.884033203125 2957.8330078125 2959.8349609375 2983.802978515625 2985.27001953125 2978.658935546875 2983.944091796875 3002.55908203125 3023.986083984375 3057.281982421875 3081.541015625 3106.5791015625 3117.93701171875 3124.574951171875 3131.22509765625 3138.006103515625 3147.583984375 3164.782958984375 3179.81103515625 3195.152099609375 3217.1708984375 3247.3798828125 3269.27099609375 3288.427001953125 3319.2470703125 3369.618896484375 3424.050048828125 3490.597900390625 3526.85400390625 3538.998046875 3507.916015625 3453.06494140625 3383.136962890625 3347.4189453125 3353.68896484375 3392.741943359375 3361.907958984375 3280.112060546875 3244.943115234375 3287.47509765625 3323.575927734375 3251.73388671875 3209.300048828125 3229.860107421875 3257.220947265625 3252.14599609375 3251.162109375 3250.089111328125 3250.735107421875 3270.923095703125 3277.217041015625 3269.0048828125 3234.910888671875 3194.537109375 3141.93603515625 3117.073974609375 3095.64306640625 3155.922119140625 3179.35498046875 3193.06298828125 3207.466064453125 3228.137939453125 3241.18701171875 3247.971923828125 3250.716064453125 3253.8349609375 3256.3798828125 3259.777099609375 3268.403076171875 3288.280029296875
2987.7080078125 2949.926025390625 2918.777099609375 2891.452880859375 2871.970947265625 2851.1650390625 2848.419921875 2831.138916015625 2771.3779296875 2722.8740234375 2698.10888671875 2669.302001953125 2623.56591796875 2606.52099609375 2588.02392578125 2564.0419921875 2571.699951171875 2599.7939453125 2638.7451171875 2693.8779296875 2748.720947265625 2754.31298828125 2689.300048828125 2662.833984375 2649.30908203125 2629.748046875 2604.214111328125 2579.30908203125 2565.840087890625 2533.541015625 2523.947021484375 2527.60498046875 2507.4599609375 2469.153076171875 2537.2919921875 2623.7490234375 2706.785888671875 2791.8369140625 2859.175048828125 2922.138916015625 2935.4140625 2953.27099609375 3031.074951171875 3050.73388671875 3022.5390625 3012.56201171875 3003.02587890625 3004.072021484375 3004.533935546875 2998.9208984375 2992.69091796875 2991.260986328125 2992.6279296875 3053.37109375 3125.5400390625 3186.927001953125 3274.041015625 3305.56005859375 3282.72705078125 3354.013916015625 3364.06298828125 3338.922119140625 3358.635986328125 3348.208984375 3335.659912109375 3358.385009765625 3401.14892578125 3397.09912109375 3334.012939453125 3271.115966796875 3192.033935546875 3105.04296875 3044.550048828125 2989.201904296875 2960.759033203125 2945.093017578125 2949.68798828125 2942.62109375 2938.5 2944.125 2970.6640625 2994.883056640625 3024.592041015625 3090.2470703125 3106.949951171875 3080.81005859375 3030.342041015625 2967.14697265625 2950.528076171875 2947.889892578125 2944.79296875 2939.402099609375 2948.742919921875 2996.10107421875 3083.3798828125 3093.160888671875 3086.162109375 3107.7529296875 3138.886962890625 3153.51904296875 3168.430908203125 3178.034912109375 3162.52099609375 3091.574951171875 3015.952880859375 2994.763916015625 2994.19189453125 2998.22412109375 2996.156005859375 3000.54296875 2999.844970703125 3012.60205078125 3048.966064453125 3080.673095703125 3124.2509765625 3144.47705078125 3124.48095703125 3127.7470703125 3128.169921875 3130.3740234375 3142.485107421875 3151.513916015625 3169.302001953125 3189.653076171875 3206.215087890625 3238.52392578125 3289.916015625 3331.72900390625 3373.85205078125 3416.339111328125 3469.669921875 3520.866943359375 3581.93994140625 3564.2939453125 3482.593994140625 3418.902099609375 3381.9560546875 3316.52392578125 3265.634033203125 3308.5849609375 3401.0439453125 3420.39306640625 3398.552978515625 3353.532958984375 3346.656982421875 3313.3291015625 3278.60205078125 3256.22900390625 3207.1650390625 3215.626953125 3211.181884765625 3176.681884765625 3163.01904296875 3164.0791015625 3188.077880859375 3190.865966796875 3187.43310546875 3171.906005859375 3104.866943359375 3062.343994140625 3032.342041015625 3027.762939453125 3056.14892578125 3130.577880859375 3148.550048828125 3209.876953125 3244.407958984375 3255.034912109375 3261.739013671875 3263.27197265625 3262.3701171875 3261.992919921875 3260.242919921875 3262.302001953125 3276.1279296875
3030.360107421875 3004.64990234375 2940.8349609375 2897.534912109375 2881.550048828125 2884.047119140625 2884.45703125 2868.9609375 2834.7451171875 2778.179931640625 2724.044921875 2705.02001953125 2680.719970703125 2645.033935546875 2611.62890625 2570.198974609375 2537.27001953125 2546.15087890625 2576.047119140625 2612.635986328125 2676.5458984375 2755.97607421875 2698.47802734375 2655.322021484375 2627.367919921875 2605.569091796875 2580.8330078125 2563.0009765625 2545.052001953125 2505.14306640625 2479.623046875 2483.427978515625 2470.77587890625 2453.94189453125 2535.468017578125 2619.669921875 2716.5419921875 2872.376953125 2940.302978515625 3005.319091796875 3012.404052734375 3043.97705078125 3086.054931640625 3066.7890625 3041.294921875 3016.39990234375 3015.6259765625 3016.84912109375 3018.449951171875 3012.510986328125 3008.60693359375 3009.56201171875 3013.798095703125 3080.23291015625 3129.072998046875 3182.867919921875 3224.718017578125 3249.89306640625 3301.467041015625 3335.512939453125 3362.7548828125 3361.77294921875 3393.72705078125 3384.89892578125 3365.52197265625 3387.35107421875 3383.693115234375 3342.89794921875 3268.510009765625 3198.3359375 3132.888916015625 3055.160888671875 2992.986083984375 2957.455078125 2934.2880859375 2923.195068359375 2908.867919921875 2887.1708984375 2877.680908203125 2877.948974609375 2892.47900390625 2923.799072265625 2947.988037109375 3021.722900390625 3060.39794921875 3092.322998046875 3048.81298828125 2977.26806640625 2961.5849609375 2959.68896484375 2959.698974609375 2959.64111328125 2969.37890625 3018.8701171875 3104.22802734375 3143.468994140625 3127.531982421875 3149.3701171875 3165.386962890625 3176.18896484375 3183.842041015625 3186.553955078125 3170.22998046875 3100.612060546875 3046.10595703125 3020.2509765625 3024.583984375 3026.697998046875 3016.39208984375 3011.029052734375 3017.22607421875 3039.29296875 3076.26708984375 3113.39404296875 3142.154052734375 3199.4580078125 3213.333984375 3187.759033203125 3167.91796875 3158.616943359375 3172.409912109375 3184.25390625 3207.9580078125 3229.346923828125 3262.156005859375 3303.468994140625 3343.10498046875 3384.303955078125 3413.318115234375 3448.737060546875 3487.81005859375 3555.701904296875 3553.98095703125 3475.052001953125 3407.424072265625 3345.968017578125 3285.60791015625 3225.98291015625 3203.384033203125 3251.39501953125 3325.159912109375 3342.30908203125 3388.10302734375 3367.631103515625 3283.424072265625 3210.76611328125 3163.903076171875 3134.51806640625 3118.923095703125 3116.4541015625 3098.864990234375 3074.3330078125 3083.35498046875 3093.949951171875 3120.02392578125 3124.2490234375 3139.08203125 3117.4580078125 3036.906982421875 2982.594970703125 2956.375 2955.376953125 2996.14599609375 3043.8701171875 3087.39794921875 3164.741943359375 3231.2109375 3273.0390625 3293.967041015625 3295.06298828125 3287.570068359375 3278.091064453125 3261.5390625 3245.787109375 3234.054931640625
3046.1650390625 3024.930908203125 2982.095947265625 2936.385009765625 2911.888916015625 2900.31005859375 2876.3759765625 2866.09912109375 2855.4169921875 2811.656005859375 2787.424072265625 2765.805908203125 2724.820068359375 2669.22412109375 2618.0849609375 2565.31103515625 2537.9580078125 2514.366943359375 2527.199951171875 2563.30810546875 2649.659912109375 2760.429931640625 2714.133056640625 2668.282958984375 2629.777099609375 2598.993896484375 2582.97998046875 2559.048095703125 2529.52099609375 2480.27197265625 2461.156005859375 2442.14208984375 2434.81298828125 2453.178955078125 2521.678955078125 2601.81494140625 2677.77490234375 2844.962890625 2977.30810546875 3068.595947265625 3079.446044921875 3120.450927734375 3129.097900390625 3069.02392578125 3039.802001953125 3031.31201171875 3033.291015625 3029.367919921875 3032.531005859375 3028.681884765625 3025.9609375 3031.5 3035.842041015625 3097.530029296875 3129.344970703125 3169.802978515625 3241.64111328125 3275.81103515625 3266.031005859375 3276.715087890625 3316.132080078125 3340.10791015625 3369.97900390625 3377.81396484375 3363.98388671875 3352.23388671875 3320.283935546875 3259.35400390625 3202.10400390625 3135.41796875 3073.131103515625 3014.52197265625 2957.08203125 2917.550048828125 2917.366943359375 2902.19091796875 2868.85009765625 2843.841064453125 2824.343017578125 2823.653076171875 2832.095947265625 2843.115966796875 2891.85693359375 2943.0791015625 2976.9990234375 3036.071044921875 3050.35400390625 2995.759033203125 2972.31201171875 2971.239013671875 2974.5791015625 2982.01904296875 2999.590087890625 3036.818115234375 3106.93408203125 3191.51708984375 3217.7919921875 3205.81201171875 3194.02099609375 3201.072021484375 3203.951904296875 3209.299072265625 3206.116943359375 3152.489990234375 3085.7490234375 3052.23193359375 3048.10205078125 3050.833984375 3042.965087890625 3026.6298828125 3031.531005859375 3055.77587890625 3102.2548828125 3142.51806640625 3171.205078125 3217.89892578125 3245.826904296875 3295.865966796875 3263.931884765625 3207.98388671875 3201.634033203125 3213.4609375 3230.7099609375 3244.195068359375 3273.946044921875 3311.635009765625 3348.9951171875 3380.33203125 3411.14306640625 3451.98095703125 3506.658935546875 3517.4208984375 3470.87109375 3407.2041015625 3361.7880859375 3285.625 3224.01904296875 3161.02001953125 3152.451904296875 3205.23193359375 3219.089111328125 3249.968994140625 3312.381103515625 3283.51806640625 3219.323974609375 3151.113037109375 3087.5048828125 3052.1220703125 3041.2880859375 3021.884033203125 2998.805908203125 2998.133056640625 3008.02197265625 3022.721923828125 3033.56494140625 3067.330078125 3090.8740234375 3079.64599609375 2984.212890625 2932.840087890625 2900.10107421875 2898.35302734375 2933.1650390625 2985.837890625 3053.925048828125 3113.64794921875 3149.722900390625 3232.73388671875 3296.10205078125 3335.055908203125 3332.823974609375 3290.304931640625 3224.10498046875 3156.06494140625 3168.85302734375
2966.2109375 2940.634033203125 2920.595947265625 2917.737060546875 2906.508056640625 2902.739013671875 2875.077880859375 2842.10400390625 2836.343994140625 2815.56201171875 2810.3798828125 2774.383056640625 2733.5 2680.5390625 2615.44189453125 2573.52587890625 2542.593994140625 2506.075927734375 2490.968994140625 2519.123046875 2603.7451171875 2746.47802734375 2785.85400390625 2712.262939453125 2641.925048828125 2611.4580078125 2589.530029296875 2562.72802734375 2522.39306640625 2469.697998046875 2444.56591796875 2436.77587890625 2414.85693359375 2448.827880859375 2504.177978515625 2586.208984375 2665.261962890625 2816.0810546875 2934.625 3054.93505859375 3128.55908203125 3175.8779296875 3119.74609375 3069.1630859375 3050.760986328125 3051.990966796875 3053.4208984375 3046.868896484375 3044.574951171875 3042.3359375 3043.64111328125 3051.39990234375 3057.006103515625 3098.333984375 3166.64404296875 3184.576904296875 3212.159912109375 3281.56396484375 3259.73388671875 3223.2490234375 3243.251953125 3266.360107421875 3297.73095703125 3329.3369140625 3332.02001953125 3301.424072265625 3266.93896484375 3183.632080078125 3115.553955078125 3048.659912109375 3013.85107421875 2981.883056640625 2935.9580078125 2896.02392578125 2890.014892578125 2871.050048828125 2842.013916015625 2821.610107421875 2797.718994140625 2772.29296875 2769.85791015625 2781.4599609375 2805.4541015625 2857.363037109375 2907.7119140625 2967.35302734375 3009.6279296875 3007.8759765625 2983.153076171875 2985.5791015625 2996.02099609375 3014.85009765625 3046.447998046875 3084.364013671875 3136.700927734375 3176.5 3198.863037109375 3215.988037109375 3219.660888671875 3224.258056640625 3229.693115234375 3238.325927734375 3237.341064453125 3196.64404296875 3111.739013671875 3077.8310546875 3067.657958984375 3074.52099609375 3068.6298828125 3061.14306640625 3069.8701171875 3095.321044921875 3128.06591796875 3149.762939453125 3180.489013671875 3227.76611328125 3263.134033203125 3322.867919921875 3370.951904296875 3315.261962890625 3256.5830078125 3245.4580078125 3252.839111328125 3266.801025390625 3288.156005859375 3331.876953125 3384.572021484375 3413.801025390625 3475.248046875 3516.737060546875 3496.926025390625 3447.657958984375 3421.846923828125 3349.153076171875 3299.427978515625 3219.739990234375 3150.27294921875 3114.68408203125 3106.908935546875 3119.614013671875 3134.625 3190.35888671875 3260.6201171875 3221.927001953125 3157.09912109375 3087.56201171875 3026.64111328125 2995.89599609375 2964.8720703125 2938.419921875 2933.823974609375 2941.68505859375 2958.47998046875 2963.75 2977.508056640625 3013.56201171875 3071.330078125 3052.925048828125 2967.346923828125 2887.85302734375 2850.74609375 2855.529052734375 2888.12890625 2934.39306640625 2980.971923828125 3026.7958984375 3105.659912109375 3172.779052734375 3241.778076171875 3261.1298828125 3249.65087890625 3228.10107421875 3154.363037109375 3094.5419921875 3097.89697265625
2923.25 2879.083984375 2854.339111328125 2840.947998046875 2830.73193359375 2831.948974609375 2801.929931640625 2751.375 2740.553955078125 2750.291015625 2748.114013671875 2733.533935546875 2723.506103515625 2687.424072265625 2618.18701171875 2580.760986328125 2523.669921875 2484.070068359375 2466.153076171875 2497.47412109375 2579.702880859375 2720.7060546875 2814.552001953125 2732.342041015625 2663.4169921875 2624.260986328125 2575.949951171875 2547.125 2524.10205078125 2469.90087890625 2437.81396484375 2445.93505859375 2408.197021484375 2421.445068359375 2484.29296875 2580.787109375 2662.77490234375 2781.98095703125 2901.93896484375 3004.384033203125 3110.617919921875 3175.404052734375 3107.1650390625 3086.12890625 3079.212890625 3073.718994140625 3073.511962890625 3067.72607421875 3057.966064453125 3050.114990234375 3057.822998046875 3069.85498046875 3081.0849609375 3102.51708984375 3180.6279296875 3181.948974609375 3220.096923828125 3226.424072265625 3182.241943359375 3159.072021484375 3171.739990234375 3184.571044921875 3232.9560546875 3284.02099609375 3291.925048828125 3279.237060546875 3237.367919921875 3154.614013671875 3079.2080078125 3012.5419921875 2961.73193359375 2930.673095703125 2901.64306640625 2877.5439453125 2860.06298828125 2837.847900390625 2829.10693359375 2811.72705078125 2780.26708984375 2766.674072265625 2739.423095703125 2736.868896484375 2764.993896484375 2795.43994140625 2832.904052734375 2901.368896484375 2972.169921875 3017.18505859375 3001.544921875 3010.699951171875 3028.5859375 3054.94091796875 3083.44091796875 3108.700927734375 3134.43896484375 3156.833984375 3172.77587890625 3187.864990234375 3216.408935546875 3241.325927734375 3252.69091796875 3262.68408203125 3264.9208984375 3246.908935546875 3156.095947265625 3113.2900390625 3095.7080078125 3095.240966796875 3090.237060546875 3085.623046875 3104.431884765625 3116.239013671875 3138.556884765625 3163.656005859375 3206.549072265625 3282.89208984375 3318.264892578125 3360.093994140625 3455.284912109375 3428.22509765625 3351.009033203125 3289.591064453125 3273.498046875 3294.486083984375 3323.014892578125 3359.319091796875 3389.802001953125 3416.2041015625 3465.118896484375 3445.333984375 3388.7099609375 3377.569091796875 3353.9599609375 3307.48095703125 3239.7890625 3166.072021484375 3107.006103515625 3076.97705078125 3068.487060546875 3065.827880859375 3096.60595703125 3169.990966796875 3214.672119140625 3164.98193359375 3085.94189453125 3014.52490234375 2968.830078125 2941.218994140625 2910.486083984375 2884.02587890625 2886.548095703125 2911.431884765625 2932.281982421875 2949.364013671875 2982.85595703125 3027.919921875 3066.300048828125 3019.282958984375 2935.27490234375 2860.0048828125 2799.8740234375 2811.489990234375 2834.678955078125 2881.05908203125 2931.35693359375 3015.347900390625 3055.43603515625 3115.43798828125 3189.802001953125 3188.593994140625 3149.551025390625 3130.112060546875 3089.9189453125 3030.263916015625 3026.552978515625
2907.01708984375 2864.1669921875 2839.14404296875 2826.093994140625 2815.6259765625 2782.048095703125 2744.760986328125 2696.030029296875 2672.69091796875 2670.10498046875 2657.97900390625 2632.780029296875 2631.073974609375 2657.239990234375 2607.741943359375 2555.055908203125 2505.19189453125 2471.30908203125 2452.181884765625 2466.18603515625 2537.97412109375 2677.291015625 2744.347900390625 2696.43505859375 2660.216064453125 2614.632080078125 2563.77490234375 2540.261962890625 2518.782958984375 2484.30908203125 2436.81494140625 2435.324951171875 2400.054931640625 2397.97509765625 2459.041015625 2564.0810546875 2639.248046875 2769.5029296875 2877.8330078125 2971.39404296875 3059.49609375 3159.14111328125 3127.51708984375 3128.405029296875 3120.69189453125 3104.4140625 3097.885986328125 3094.464111328125 3098.18408203125 3102.35302734375 3098.010009765625 3089.986083984375 3108.513916015625 3122.467041015625 3115.919921875 3143.864990234375 3162.9130859375 3138.04296875 3138.9970703125 3112.386962890625 3100.66796875 3108.924072265625 3151.864013671875 3230.675048828125 3246.321044921875 3250.47705078125 3255.884033203125 3176.73291015625 3077.56396484375 3009.23095703125 2957.097900390625 2921.72412109375 2903.333984375 2882.5439453125 2886.488037109375 2858.134033203125 2818.922119140625 2802.51904296875 2773.537109375 2753.743896484375 2712.919921875 2702.2900390625 2720.5439453125 2737.800048828125 2764.47802734375 2838.1298828125 2934.3759765625 3015.01904296875 3026.993896484375 3035.35693359375 3046.85791015625 3065.988037109375 3093.2509765625 3116.823974609375 3135.18310546875 3156.25 3178.862060546875 3192.501953125 3222.797119140625 3254.507080078125 3270.81298828125 3279.719970703125 3287.132080078125 3278.466064453125 3204.27294921875 3149.716064453125 3132.449951171875 3120.51904296875 3116.169921875 3115.173095703125 3135.404052734375 3156.31298828125 3186.303955078125 3227.89306640625 3266.201904296875 3335.092041015625 3401.6201171875 3473.51904296875 3494.800048828125 3468.221923828125 3450.591064453125 3387.596923828125 3352.26904296875 3333.64599609375 3341.552001953125 3364.7890625 3392.6669921875 3435.93701171875 3397.777099609375 3325.16796875 3273.135009765625 3286.153076171875 3285.639892578125 3232.906005859375 3198.508056640625 3127.237060546875 3066.260009765625 3041.5791015625 3033.625 3036.718994140625 3088.69091796875 3160.591064453125 3141.614013671875 3069.85400390625 3000.052978515625 2942.56494140625 2913.675048828125 2887.3369140625 2857.924072265625 2837.033935546875 2845.110107421875 2897.445068359375 2951.9619140625 2985.5380859375 3033.68505859375 3081.8330078125 3037.5419921875 2960.906005859375 2885.47705078125 2824.93701171875 2759.1640625 2764.64599609375 2793.264892578125 2841.285888671875 2911.218017578125 2967.657958984375 3018.845947265625 3108.4619140625 3142.077880859375 3128.2060546875 3055.56298828125 3031.887939453125 3004.824951171875 2949.654052734375 2981.68603515625
2903.10498046875 2875.549072265625 2845.14404296875 2823.419921875 2796.697998046875 2764.236083984375 2746.72998046875 2697.823974609375 2647.718017578125 2622.89208984375 2600.69091796875 2569.962890625 2547.551025390625 2535.68701171875 2527.198974609375 2518.008056640625 2504.2080078125 2482.93994140625 2443.04296875 2433.888916015625 2494.947021484375 2576.76708984375 2672.60107421875 2656.029052734375 2625.1298828125 2590.125 2553.0380859375 2505.571044921875 2482.556884765625 2476.81005859375 2432.287109375 2423.669921875 2408.611083984375 2378.802978515625 2422.52294921875 2531.759033203125 2608.009033203125 2744.384033203125 2837.2919921875 2929.02392578125 3033.698974609375 3137.430908203125 3171.7041015625 3188.155029296875 3163.7041015625 3147.804931640625 3131.81396484375 3127.529052734375 3129.635009765625 3145.39990234375 3166.39501953125 3127.68798828125 3122.697998046875 3072.491943359375 3049.839111328125 3053.595947265625 3059.666015625 3067.972900390625 3111.967041015625 3085.875 3062.156005859375 3058.25390625 3102.095947265625 3177.362060546875 3205.669921875 3227.218017578125 3240.006103515625 3189.9599609375 3124.639892578125 3065.509033203125 3012.7470703125 2971.863037109375 2935.197021484375 2908.135009765625 2869.10302734375 2813.43701171875 2772.375 2765.72900390625 2738.242919921875 2710.73291015625 2680.592041015625 2668.596923828125 2671.669921875 2690.06201171875 2714.843017578125 2791.23291015625 2876.347900390625 2947.181884765625 3006.037109375 3074.739013671875 3098.3779296875 3100.3740234375 3114.76611328125 3127.6640625 3144.868896484375 3175.705078125 3202.156005859375 3210.717041015625 3243.4140625 3272.9189453125 3290.1650390625 3304.35205078125 3316.666015625 3323.08203125 3277.39892578125 3197.6630859375 3170.81591796875 3152.64501953125 3152.155029296875 3164.22998046875 3206.0048828125 3242.742919921875 3300.06494140625 3321.117919921875 3357.367919921875 3404.39404296875 3453.989013671875 3475.781982421875 3452.43310546875 3441.64404296875 3451.839111328125 3478.344970703125 3463.62109375 3440.1640625 3436.6201171875 3447.10595703125 3468.157958984375 3442.679931640625 3359.68798828125 3265.125 3214.02294921875 3202.239013671875 3223.257080078125 3161.617919921875 3120.132080078125 3066.19189453125 3021.166015625 3002.990966796875 2994.694091796875 3026.8369140625 3103.4599609375 3127.2890625 3065.06396484375 2986.14990234375 2926.10791015625 2883.625 2859.160888671875 2834.632080078125 2810.15087890625 2787.43310546875 2801.572998046875 2844.14111328125 2869.509033203125 2928.8701171875 2998.23291015625 3043.85791015625 2981.376953125 2924.1630859375 2855.0830078125 2782.575927734375 2718.31201171875 2723.507080078125 2751.093994140625 2805.822998046875 2857.98193359375 2899.18994140625 2981.166015625 3052.72900390625 3078.39697265625 3025.531005859375 2978.7919921875 2932.949951171875 2912.93798828125 2880.1298828125 2928.044921875
2926.240966796875 2877.616943359375 2831.876953125 2790.449951171875 2767.0390625 2746.44091796875 2722.60693359375 2664.43994140625 2631.612060546875 2607.304931640625 2575.97900390625 2556.672119140625 2531.635986328125 2499.39599609375 2468.639892578125 2452.659912109375 2442.9619140625 2455.837890625 2435.283935546875 2414.998046875 2468.6630859375 2554.742919921875 2640.946044921875 2619.384033203125 2586.949951171875 2545.285888671875 2523.912109375 2476.8349609375 2434.327880859375 2419.577880859375 2407.02294921875 2395.048095703125 2398.8359375 2369.672119140625 2397.885009765625 2486.830078125 2572.1640625 2708.779052734375 2810.137939453125 2909.1201171875 2996.448974609375 3070.239990234375 3113.551025390625 3172.089111328125 3210.37890625 3211.8779296875 3181.529052734375 3189.007080078125 3192.12109375 3184.072998046875 3129.924072265625 3092.02001953125 3075.33203125 3050.280029296875 3019.056884765625 3005.031005859375 2980.174072265625 2982.5869140625 3039.6201171875 3075.320068359375 3042.00390625 3040.333984375 3046.76708984375 3124.54296875 3179.93408203125 3207.873046875 3229.056884765625 3233.9560546875 3146.64208984375 3069.051025390625 2997.302978515625 2928.6220703125 2875.02197265625 2842.343994140625 2809.388916015625 2757.928955078125 2711.7109375 2701.172119140625 2690.5048828125 2670.70703125 2647.9970703125 2633.02099609375 2635.948974609375 2643.3779296875 2671.6640625 2750.87109375 2811.199951171875 2869.52197265625 2953.593017578125 3031.409912109375 3108.468994140625 3169.423095703125 3147.52197265625 3149.89208984375 3191.596923828125 3240.610107421875 3242.054931640625 3256.177001953125 3276.8330078125 3294.5859375 3315.384033203125 3332.864013671875 3343.303955078125 3354.05810546875 3302.27490234375 3228.498046875 3201.00390625 3184.509033203125 3193.444091796875 3196.054931640625 3221.988037109375 3300.135009765625 3379.4140625 3374.30908203125 3374.90087890625 3391.35888671875 3405.548095703125 3413.626953125 3418.22509765625 3418.15087890625 3422.030029296875 3436.294921875 3455.181884765625 3464.93701171875 3480.951904296875 3502.656005859375 3455.2451171875 3407.90087890625 3340.4560546875 3242.10205078125 3175.156005859375 3159.262939453125 3175.35400390625 3121.653076171875 3062.616943359375 3011.06591796875 2977.05810546875 2967.8759765625 2963.72509765625 3019.10888671875 3108.376953125 3075.26611328125 3000.30908203125 2933.422119140625 2883.06591796875 2840.949951171875 2809.076904296875 2786.58203125 2757.43896484375 2733.56396484375 2751.56103515625 2770.9609375 2808.93798828125 2877.239990234375 2951.866943359375 2992.906982421875 2915.06494140625 2848.81103515625 2809.9619140625 2734.337890625 2675.94091796875 2683.56591796875 2702.51806640625 2758.416015625 2799.468017578125 2857.60888671875 2938.85205078125 3021.09912109375 3019.30908203125 2943.136962890625 2897.6298828125 2868.39111328125 2850.509033203125 2813.033935546875 2832.382080078125
2999.48095703125 2930.8310546875 2871.333984375 2789.092041015625 2741.927978515625 2719.2041015625 2681.591064453125 2639.402099609375 2620.8369140625 2596.4609375 2562.51806640625 2540.77294921875 2530.126953125 2499.412109375 2463.77392578125 2433.597900390625 2394.0009765625 2395.5029296875 2417.444091796875 2385.3369140625 2434.97412109375 2517.39697265625 2606.64208984375 2583.449951171875 2545.548095703125 2502.927978515625 2457.4580078125 2410.611083984375 2374.719970703125 2361.5859375 2376.444091796875 2378.85400390625 2379.56005859375 2350.27294921875 2384.739013671875 2464.22705078125 2562.364013671875 2678.0791015625 2771.610107421875 2860.577880859375 2954.81591796875 3007.533935546875 3046.7890625 3115.841064453125 3173.56591796875 3172.117919921875 3115.014892578125 3104.110107421875 3125.802001953125 3151.676025390625 3096.574951171875 3035.919921875 3002.535888671875 2977.73291015625 2959.4130859375 2935.26708984375 2920.12890625 2916.298095703125 2974.5419921875 3014.033935546875 3002.929931640625 3006.756103515625 3001.988037109375 3067.487060546875 3148.427001953125 3183.656982421875 3200.27294921875 3194.047119140625 3133.212890625 3045.94091796875 2975.125 2908.568115234375 2848.326904296875 2801.85107421875 2767.85205078125 2730.819091796875 2678.368896484375 2662.322021484375 2645.5810546875 2633.4580078125 2612.77099609375 2599.60205078125 2602.01904296875 2611.863037109375 2651.125 2705.801025390625 2766.674072265625 2837.993896484375 2911.968994140625 2987.26904296875 3067.9970703125 3156.10595703125 3190.177978515625 3177.27587890625 3197.178955078125 3254.136962890625 3264.841064453125 3277.48193359375 3297.041015625 3312.654052734375 3333.116943359375 3346.989990234375 3363.06494140625 3379.7451171875 3356.4580078125 3292.240966796875 3266.652099609375 3237.6708984375 3224.110107421875 3226.782958984375 3223.2109375 3265.5048828125 3343.506103515625 3340.01806640625 3352.447021484375 3370.0380859375 3388.676025390625 3390.68310546875 3396.1201171875 3401.1240234375 3405.111083984375 3411.44091796875 3423.43408203125 3435.94091796875 3451.887939453125 3442.297119140625 3397.929931640625 3366.805908203125 3299.5400390625 3222.68505859375 3142.033935546875 3124.928955078125 3127.06005859375 3063.14697265625 3009.112060546875 2979.9580078125 2946.14697265625 2944.48388671875 2939.80810546875 2996.2919921875 3061.597900390625 3049.85205078125 2964.010986328125 2904.89404296875 2853.381103515625 2806.794921875 2766.888916015625 2741.62109375 2710.5009765625 2677.422119140625 2682.139892578125 2700.60205078125 2753.001953125 2812.029052734375 2890.967041015625 2942.248046875 2884.405029296875 2802.43798828125 2736.532958984375 2670.97412109375 2632.740966796875 2641.64794921875 2670.324951171875 2711.739013671875 2753.306884765625 2824.69189453125 2913.35888671875 2964.85498046875 2975.416015625 2909.5009765625 2836.1201171875 2811.322021484375 2791.91796875 2758.491943359375 2749.56689453125
3023.471923828125 2976.681884765625 2887.5458984375 2788.06689453125 2721.510009765625 2692.513916015625 2662.179931640625 2635.471923828125 2624.554931640625 2602.952880859375 2545.0439453125 2523.56494140625 2527.93994140625 2504.090087890625 2452.387939453125 2418.751953125 2368.157958984375 2333.580078125 2357.343994140625 2367.322998046875 2399.302978515625 2475.339111328125 2592.012939453125 2562.742919921875 2512.197021484375 2461.8369140625 2403.007080078125 2353.152099609375 2315.9150390625 2312.12109375 2333.031982421875 2345.9580078125 2357.077880859375 2341.909912109375 2364.090087890625 2438.4169921875 2536.278076171875 2652.22802734375 2747.75 2844.489013671875 2909.632080078125 2961.8779296875 3002.735107421875 3059.764892578125 3110.572998046875 3116.14794921875 3049.089111328125 3029.931884765625 3047.27587890625 3079.006103515625 3070.450927734375 3007.0869140625 2949.035888671875 2910.98095703125 2879.198974609375 2861.455078125 2858.1689453125 2852.304931640625 2882.596923828125 2937.85498046875 2938.449951171875 2955.14599609375 2968.10791015625 3006.987060546875 3093.97802734375 3153.177001953125 3137.535888671875 3137.404052734375 3134.14599609375 3062.389892578125 2979.29296875 2896.64306640625 2843.81591796875 2802.8330078125 2762.759033203125 2719.131103515625 2659.462890625 2632.030029296875 2617.090087890625 2606.9951171875 2596.741943359375 2574.18603515625 2574.9609375 2596.7548828125 2637.2109375 2686.52490234375 2742.48388671875 2813.02099609375 2883.06201171875 2974.81591796875 3046.303955078125 3123.381103515625 3203.590087890625 3218.135986328125 3234.0439453125 3285.31689453125 3284.0791015625 3308.26708984375 3316.31103515625 3326.330078125 3344.6669921875 3362.618896484375 3380.135009765625 3406.7900390625 3417.68994140625 3410.284912109375 3389.304931640625 3341.260009765625 3292.677001953125 3261.44091796875 3253.0859375 3271.384033203125 3317.784912109375 3334.117919921875 3342.343994140625 3355.31298828125 3370.43798828125 3372.827880859375 3377.0791015625 3382.6708984375 3384.656005859375 3384.33203125 3387.64306640625 3395.31591796875 3402.718017578125 3354.4541015625 3338.916015625 3326.27099609375 3264.48388671875 3187.132080078125 3112.326904296875 3095.530029296875 3082.264892578125 3023.632080078125 2957.94091796875 2933.133056640625 2928.739990234375 2928.27587890625 2936.39599609375 2969.014892578125 2978.097900390625 3027.010986328125 2941.491943359375 2875.470947265625 2821.5830078125 2775.18701171875 2728.83203125 2700.291015625 2675 2630.069091796875 2616.702880859375 2638.074951171875 2675.3740234375 2743.031005859375 2822.4951171875 2874.875 2876.95703125 2809.89208984375 2726.172119140625 2646.797119140625 2601.18994140625 2605.971923828125 2634.05908203125 2664.530029296875 2706.909912109375 2778.248046875 2842.205078125 2894.510009765625 2918.993896484375 2852.52099609375 2784.39990234375 2756.2109375 2730.77099609375 2698.44189453125 2693.592041015625
2949.68798828125 2960.242919921875 2868.01904296875 2793.35302734375 2736.91796875 2683.958984375 2661.632080078125 2629.492919921875 2610.783935546875 2589.083984375 2557.157958984375 2523.927001953125 2520.507080078125 2505.950927734375 2445.97412109375 2397.283935546875 2347.614013671875 2312.680908203125 2289.8330078125 2318.0419921875 2364.60693359375 2464.5419921875 2576.7451171875 2540.468994140625 2493.219970703125 2434.4990234375 2371.2548828125 2317.681884765625 2272.68505859375 2269.31005859375 2300.93798828125 2311.419921875 2324.027099609375 2338.196044921875 2350.458984375 2416.83203125 2506.529052734375 2613.0390625 2710.385986328125 2809.52294921875 2889.550048828125 2922.73193359375 2951.05908203125 3006.1201171875 3043.6279296875 3067.218994140625 3031.576904296875 3007.031005859375 2993.951904296875 3003.81103515625 2993.548095703125 2985.631103515625 2929.361083984375 2883.4580078125 2840.31005859375 2815.324951171875 2806.008056640625 2802.39208984375 2801.01611328125 2848.251953125 2878.593994140625 2903.26806640625 2918.80810546875 2928.68994140625 3018.676025390625 3110.99609375 3094.989013671875 3096.60205078125 3142.14111328125 3067.85107421875 2984.50390625 2909.590087890625 2849.10400390625 2818.97900390625 2772.41796875 2707.44091796875 2650.2919921875 2623.39892578125 2603.737060546875 2587.27587890625 2576.56298828125 2554.493896484375 2557.947998046875 2586.863037109375 2627.669921875 2677.343017578125 2733.742919921875 2797.654052734375 2872.532958984375 2952.970947265625 3028.344970703125 3114.10400390625 3194.044921875 3236.48193359375 3277.866943359375 3305.262939453125 3306.22607421875 3314.509033203125 3301.97509765625 3313.449951171875 3364.64501953125 3378.93603515625 3394.219970703125 3422.912109375 3453.179931640625 3489.8369140625 3484.18896484375 3430.679931640625 3392.383056640625 3365.009033203125 3318.9541015625 3320.8349609375 3324.406005859375 3332.054931640625 3336.074951171875 3346.407958984375 3356.035888671875 3359.656982421875 3357.510009765625 3356.94189453125 3354.697998046875 3347.618896484375 3335.153076171875 3327.3349609375 3288.531982421875 3266.98193359375 3262.318115234375 3248.471923828125 3233.943115234375 3158.263916015625 3093.429931640625 3062.449951171875 3032.635986328125 2990.968017578125 2919.85693359375 2884.455078125 2905.64111328125 2911.5390625 2905.60302734375 2891.43798828125 2936.7490234375 2954.865966796875 2929.9169921875 2852.7958984375 2789.615966796875 2743.760009765625 2700.238037109375 2649.531005859375 2624.80908203125 2601.638916015625 2567.842041015625 2587.301025390625 2629.47607421875 2693.368896484375 2754.72998046875 2821.60791015625 2823.166015625 2771.7470703125 2693.02294921875 2611.905029296875 2562.5 2566.047119140625 2588.656005859375 2620.446044921875 2687.614990234375 2718.31005859375 2776.153076171875 2825.14306640625 2853.241943359375 2803.81591796875 2727.62109375 2703.446044921875 2679.2099609375 2644.173095703125 2642.0380859375
2919.487060546875 2919.291015625 2896.902099609375 2852.761962890625 2797.673095703125 2740.964111328125 2704.23291015625 2636.910888671875 2597.56103515625 2564.31201171875 2552.5791015625 2535.697998046875 2519.98388671875 2484.553955078125 2422.01708984375 2364.822021484375 2307.885009765625 2284.510009765625 2264.44189453125 2269.64208984375 2330.60595703125 2440.804931640625 2549.6240234375 2518.985107421875 2463.31689453125 2411.35888671875 2347.40087890625 2307.902099609375 2259.008056640625 2217.7451171875 2267.552978515625 2293.10595703125 2299.5048828125 2317.541015625 2338.092041015625 2401.12109375 2488.423095703125 2576.465087890625 2684.81005859375 2797.510009765625 2853.6708984375 2856.612060546875 2908.902099609375 2950.468994140625 2947.466064453125 2993.9970703125 3000.64794921875 2991.553955078125 2985.237060546875 2977.055908203125 2937.617919921875 2924.10400390625 2923.201904296875 2887.199951171875 2844.091064453125 2810.991943359375 2778.366943359375 2759.2958984375 2751.60009765625 2780.010009765625 2814.43798828125 2849.31005859375 2828.677001953125 2869.14208984375 2980.1220703125 3063.30908203125 3065.10693359375 3066.4951171875 3129.928955078125 3108.885009765625 3024.16796875 2948.52294921875 2878.4609375 2806.587890625 2747.653076171875 2691.403076171875 2643.638916015625 2613.951904296875 2581.60009765625 2565.797119140625 2549.64697265625 2528.2490234375 2537.547119140625 2568.572998046875 2611.2490234375 2663.919921875 2730.051025390625 2810.3779296875 2895.84912109375 2970.006103515625 3045.35498046875 3117.580078125 3183.447998046875 3228.031982421875 3249.7109375 3242.4169921875 3236.47900390625 3228.162109375 3216.485107421875 3242.2880859375 3305.85400390625 3308.77099609375 3327.73388671875 3367.048095703125 3435.330078125 3493.176025390625 3546.2041015625 3531.033935546875 3492.39208984375 3446.218994140625 3385.802001953125 3343.138916015625 3330.23291015625 3330.1240234375 3334.386962890625 3340.094970703125 3346.419921875 3349.487060546875 3343.75390625 3329.47705078125 3319.574951171875 3294.283935546875 3255.962890625 3249.327880859375 3224.154052734375 3203.301025390625 3187.320068359375 3169.8310546875 3163.1630859375 3108.675048828125 3046.4580078125 3015.8759765625 2990.77001953125 2948.347900390625 2901.714111328125 2871.60888671875 2893.428955078125 2877.715087890625 2857.389892578125 2831.031982421875 2828.4580078125 2847.200927734375 2883.31201171875 2846.14794921875 2758.60791015625 2710.737060546875 2670.804931640625 2618.080078125 2575.285888671875 2556.18798828125 2524.8798828125 2541.14404296875 2567.612060546875 2624.373046875 2711.282958984375 2763.737060546875 2784.51904296875 2717.906005859375 2637.616943359375 2559.51708984375 2528.638916015625 2521.962890625 2541.02001953125 2570.048095703125 2622.929931640625 2652.324951171875 2718.094970703125 2732.867919921875 2769.58203125 2767.5029296875 2685.31396484375 2654.967041015625 2624.39794921875 2591.178955078125 2604.722900390625
2906.39697265625 2901.362060546875 2848.864013671875 2810.873046875 2769.19091796875 2702.902099609375 2681.764892578125 2660.89501953125 2584.261962890625 2545.56689453125 2534.260009765625 2518.001953125 2499.5 2460.305908203125 2395.98291015625 2335.56005859375 2277.291015625 2245.39599609375 2237.320068359375 2246.989013671875 2303.596923828125 2387.64306640625 2446.2119140625 2481.968994140625 2429.431884765625 2380.1259765625 2319.537109375 2272.428955078125 2216.73193359375 2177.885986328125 2203.658935546875 2248.25 2265.27197265625 2293.071044921875 2316.195068359375 2366.652099609375 2457.652099609375 2554.30810546875 2658.887939453125 2759.533935546875 2772.123046875 2775.97607421875 2845.407958984375 2860.22412109375 2881.47607421875 2975.22900390625 2980.506103515625 2966.66796875 2976.25 2968.70703125 2916.027099609375 2892.034912109375 2872.218994140625 2852.929931640625 2816.885986328125 2803.281982421875 2787.469970703125 2744.594970703125 2722.27001953125 2731.950927734375 2745.784912109375 2790.883056640625 2766.9208984375 2830.1708984375 2940.9599609375 2980.9580078125 2972.4970703125 3021.26611328125 3124.1689453125 3115.94091796875 3037.197998046875 2963.85791015625 2888.35107421875 2816.951904296875 2751.910888671875 2693.885986328125 2644.76904296875 2606.073974609375 2569.904052734375 2527.873046875 2519.160888671875 2508.948974609375 2517.498046875 2544.882080078125 2588.797119140625 2651.217041015625 2733.69091796875 2811.922119140625 2883.281982421875 2957.40087890625 3019.56201171875 3084.445068359375 3146.0830078125 3164.235107421875 3178.083984375 3163.416015625 3152.425048828125 3138.8701171875 3128.412109375 3183.60791015625 3213.06103515625 3226.27099609375 3253.047119140625 3312.360107421875 3373.256103515625 3450.68701171875 3545.884033203125 3568.35009765625 3510.637939453125 3434.070068359375 3366.135986328125 3340.716064453125 3329.070068359375 3328.08203125 3330.257080078125 3334.555908203125 3340.385986328125 3340.85205078125 3333.757080078125 3307.534912109375 3268.201904296875 3212.2939453125 3184.9619140625 3173.330078125 3153.239013671875 3135.342041015625 3106.947998046875 3090.85595703125 3045.527099609375 3019.777099609375 2997.9580078125 2967.471923828125 2939.43310546875 2900.24609375 2871.882080078125 2856.447998046875 2846.367919921875 2816.41796875 2802.260009765625 2782.94189453125 2764.98095703125 2781.238037109375 2826.715087890625 2845.9541015625 2762.158935546875 2683.011962890625 2641.568115234375 2586.676025390625 2538.639892578125 2505.7080078125 2485.06201171875 2492.4580078125 2520 2599.657958984375 2683.93798828125 2684.763916015625 2711.77392578125 2674.931884765625 2601.81103515625 2519.572021484375 2485.764892578125 2480.89111328125 2496.177978515625 2538.512939453125 2567.530029296875 2580.846923828125 2634.883056640625 2652.8759765625 2687.537109375 2708.5029296875 2665.195068359375 2615.73095703125 2586.0390625 2540.18310546875 2588.623046875
2854.39404296875 2851.8330078125 2833.656982421875 2754.134033203125 2693.669921875 2649.9619140625 2619.0048828125 2614.56591796875 2566.56103515625 2544.514892578125 2521.9619140625 2513.35400390625 2483.39697265625 2426.909912109375 2379.748046875 2329.31201171875 2265.297119140625 2228.22705078125 2214.81298828125 2227.904052734375 2284.111083984375 2336.238037109375 2369.98095703125 2393.7890625 2409.721923828125 2344.47607421875 2279.535888671875 2229.455078125 2170.2880859375 2135.3740234375 2147 2203.450927734375 2236.08203125 2256.5 2283.90087890625 2341.681884765625 2411.070068359375 2490.464111328125 2628.48193359375 2716.407958984375 2693.7900390625 2697.403076171875 2764 2776.7919921875 2866.260986328125 2954.113037109375 2968.299072265625 2932.50390625 2950.485107421875 2952.60205078125 2897.930908203125 2872.762939453125 2854.610107421875 2834.51708984375 2771.2470703125 2750.943115234375 2764.173095703125 2768.01708984375 2714.947021484375 2693.427001953125 2682.35400390625 2687.012939453125 2709.3330078125 2756.35498046875 2863.873046875 2892.89990234375 2921.95703125 2976.6240234375 3084.341064453125 3120.8330078125 3067.299072265625 2988.346923828125 2925.556884765625 2841.25 2762.117919921875 2695.97705078125 2643.860107421875 2599.81689453125 2549.9990234375 2505.26708984375 2497.801025390625 2486.56689453125 2495.634033203125 2517.677978515625 2562.43798828125 2633.614990234375 2728.843994140625 2792.15087890625 2861.037109375 2937.830078125 3011.2109375 3060.445068359375 3088.532958984375 3097.47802734375 3103.55810546875 3082.406982421875 3081.260986328125 3058.447998046875 3048.802978515625 3083.029052734375 3110.02587890625 3151.47705078125 3204.799072265625 3269.0419921875 3356.73388671875 3439.506103515625 3520.9130859375 3498.243896484375 3459.0439453125 3422.31005859375 3357.98193359375 3334.81201171875 3325.091064453125 3323.580078125 3324.675048828125 3328.1689453125 3334.5439453125 3335.0048828125 3326.4140625 3300.22412109375 3237.10693359375 3158.37109375 3096.0029296875 3074.945068359375 3078.958984375 3066.64990234375 3038.72509765625 3013.087890625 2955.926025390625 2919.5791015625 2927.4970703125 2913.923095703125 2893.31201171875 2851.572998046875 2825.422119140625 2821.492919921875 2789.5830078125 2761.676025390625 2747.431884765625 2737.2509765625 2729.637939453125 2749.013916015625 2807.514892578125 2817.02587890625 2753.535888671875 2666.696044921875 2609.962890625 2552.10888671875 2492.199951171875 2461.575927734375 2446.93505859375 2451.028076171875 2487.447021484375 2578.27392578125 2639.070068359375 2600.302001953125 2633.4150390625 2613.5458984375 2557.093994140625 2481.241943359375 2454.1689453125 2437.9130859375 2454.823974609375 2490.64599609375 2500.428955078125 2514.096923828125 2540.4541015625 2576.343994140625 2586.68896484375 2618.56689453125 2637.490966796875 2582.612060546875 2553.00390625 2494.298095703125 2534.51611328125
2810.528076171875 2775.281005859375 2760.716064453125 2726.794921875 2647.785888671875 2599.02197265625 2562.9609375 2554.799072265625 2535.330078125 2516.806884765625 2503.466064453125 2474.427001953125 2436.385009765625 2400.70703125 2368.55908203125 2328.080078125 2271.068115234375 2222.0419921875 2200.364990234375 2200.14794921875 2247.26806640625 2288.52099609375 2302.5869140625 2324.1201171875 2343.2109375 2299.8291015625 2243.966064453125 2195.675048828125 2136.3369140625 2101.39697265625 2095.43310546875 2141.9541015625 2191.12890625 2231.931884765625 2257.955078125 2315.410888671875 2379.680908203125 2447.3330078125 2573.076904296875 2662.43701171875 2642.243896484375 2638.62890625 2673.326904296875 2741.06103515625 2841.287109375 2918.919921875 2955.784912109375 2912.826904296875 2919.8759765625 2931.635009765625 2903.56494140625 2852.052001953125 2838.993896484375 2797.4560546875 2747.5380859375 2716.3759765625 2715.583984375 2746.592041015625 2730.43505859375 2669.445068359375 2648.868896484375 2650.055908203125 2650.324951171875 2687.344970703125 2788.18408203125 2845.236083984375 2916.340087890625 2980.68603515625 3062.300048828125 3071.219970703125 3049.092041015625 3032.177001953125 2944.498046875 2876.6669921875 2798.947998046875 2720.509033203125 2668.39208984375 2599.7080078125 2529.333984375 2481.31689453125 2461.157958984375 2464.675048828125 2476.136962890625 2498.76611328125 2544.303955078125 2618.346923828125 2697.35009765625 2767.166015625 2847.409912109375 2913.35693359375 2959.9580078125 3006.883056640625 3027.511962890625 3022.8779296875 3010.375 3009.62109375 2992.27587890625 2984.89111328125 2980.533935546875 3001.201904296875 3051.929931640625 3107.7060546875 3165.073974609375 3233.60205078125 3315.2470703125 3398.257080078125 3483.716064453125 3432.73193359375 3397.178955078125 3405.781982421875 3363.373046875 3322.59912109375 3316.5439453125 3316.492919921875 3317.5830078125 3320.529052734375 3326.944091796875 3330.863037109375 3320.4208984375 3287.89111328125 3228.6650390625 3132.08203125 3053.3359375 3018.27099609375 3000.06396484375 2990.251953125 2977.02490234375 2953.654052734375 2904.97412109375 2864.7890625 2832.883056640625 2836.89697265625 2858.0859375 2815.241943359375 2776.25 2763.97900390625 2737.681884765625 2713.18603515625 2703.134033203125 2696.9169921875 2708.529052734375 2747.31396484375 2813.43603515625 2779.43798828125 2716.611083984375 2651.491943359375 2580.72509765625 2526.01806640625 2463.656005859375 2421.51708984375 2411.989990234375 2414.781005859375 2453.177978515625 2528.39599609375 2578.819091796875 2519.903076171875 2559.861083984375 2547.616943359375 2482.952880859375 2433.5419921875 2412.572021484375 2397.031005859375 2401.89501953125 2419.760009765625 2430.06689453125 2433.2900390625 2474.826904296875 2488.7060546875 2498.0458984375 2554.333984375 2560.68505859375 2533.35888671875 2515.655029296875 2455.080078125 2444.847900390625
2776.4560546875 2742.23193359375 2704.927978515625 2660.47607421875 2604.06298828125 2563.535888671875 2531.301025390625 2501.68798828125 2480.656005859375 2455.279052734375 2438.06103515625 2414.794921875 2383.784912109375 2360.507080078125 2339.553955078125 2316.072998046875 2276.159912109375 2233.64306640625 2193.325927734375 2179.6640625 2198.0400390625 2230.2919921875 2261.3779296875 2273.81005859375 2269.906005859375 2267.64892578125 2215.9541015625 2167.991943359375 2112.966064453125 2079.35595703125 2069.467041015625 2092.339111328125 2155.404052734375 2192.447021484375 2223.60888671875 2277.431884765625 2351.10107421875 2424.26708984375 2511.4169921875 2574.85009765625 2577.09912109375 2583.910888671875 2631.426025390625 2717.912109375 2792.62109375 2884.908935546875 2933.549072265625 2891.48388671875 2892.342041015625 2904.7080078125 2905.35205078125 2832.968017578125 2792.841064453125 2765.093017578125 2735.0400390625 2714.93701171875 2712.032958984375 2718.113037109375 2706.287109375 2660.824951171875 2622.406005859375 2617.200927734375 2620.155029296875 2654.3369140625 2743.98095703125 2816.5400390625 2880.200927734375 2946.051025390625 3022.7451171875 3026.77392578125 2995.158935546875 2992.77001953125 2885.5791015625 2802.955078125 2751.8369140625 2683.694091796875 2604.072998046875 2572.867919921875 2509.20703125 2454.79296875 2445.47900390625 2449.68603515625 2452.797119140625 2478.27392578125 2523.660888671875 2595.39794921875 2668.14501953125 2732.64794921875 2796.72900390625 2847.52392578125 2918.636962890625 2965.862060546875 2969.861083984375 2944.340087890625 2942.89501953125 2942.7470703125 2945.196044921875 2941.4560546875 2937.85302734375 2976.0048828125 3026.152099609375 3092.85498046875 3155.366943359375 3217.10107421875 3287.735107421875 3371.625 3438.72705078125 3390.73291015625 3360.14404296875 3350.382080078125 3324.547119140625 3303.883056640625 3303.889892578125 3307.35693359375 3308.45703125 3310.485107421875 3316.950927734375 3325.1669921875 3326.0009765625 3270.25 3183.748046875 3107.537109375 3043.485107421875 3001.35888671875 2979.052978515625 2960.41796875 2927.742919921875 2908.89697265625 2896.1220703125 2838.02392578125 2790.60498046875 2772.471923828125 2801.47802734375 2769.72705078125 2736.4951171875 2710.428955078125 2687.952880859375 2672.030029296875 2664.322998046875 2660.674072265625 2685.677978515625 2739.051025390625 2793.367919921875 2746.154052734375 2676.3359375 2614.278076171875 2552.909912109375 2491.75 2441.18505859375 2384.547119140625 2377.02001953125 2388.73095703125 2433.06396484375 2516.6259765625 2505.799072265625 2446.458984375 2474.4951171875 2484.535888671875 2410.806884765625 2369.94189453125 2342.587890625 2351.282958984375 2342.757080078125 2353.263916015625 2351.300048828125 2377.501953125 2404.444091796875 2407.552001953125 2437.614990234375 2467.0419921875 2462.943115234375 2469.48193359375 2461.862060546875 2404.3291015625 2373.325927734375
2753.23388671875 2702.490966796875 2676.72607421875 2663.05908203125 2618.299072265625 2546.89208984375 2511.214111328125 2484.4951171875 2458.60595703125 2435.093994140625 2414.787109375 2395.843017578125 2376.904052734375 2357.85302734375 2337.012939453125 2313.23193359375 2278.60595703125 2229.60498046875 2190.81201171875 2168.823974609375 2166.93310546875 2179.633056640625 2202.1201171875 2228.8291015625 2257.087890625 2244.177978515625 2202.89111328125 2149.527099609375 2097.8779296875 2062.18798828125 2053.636962890625 2068.708984375 2114.864990234375 2147.3759765625 2178.635986328125 2221.488037109375 2306.866943359375 2395.7490234375 2457.863037109375 2507.117919921875 2518.510009765625 2531.47607421875 2594.096923828125 2665.693115234375 2743.888916015625 2816.423095703125 2903.155029296875 2883.635009765625 2867.779052734375 2869.327880859375 2864.583984375 2867.845947265625 2802.02294921875 2761.132080078125 2730.861083984375 2717.97998046875 2709.794921875 2705.447998046875 2686.118896484375 2661.090087890625 2614.242919921875 2594.675048828125 2601.199951171875 2646.904052734375 2711.5009765625 2783.76806640625 2868.014892578125 2942.2099609375 2979.636962890625 2976.861083984375 2946.43994140625 2948.43408203125 2861.81201171875 2769.5791015625 2692.801025390625 2623.60302734375 2560.181884765625 2503.0390625 2456.87109375 2426.5400390625 2420.611083984375 2429.9541015625 2427.80908203125 2441.125 2483.14697265625 2557.3701171875 2620.7939453125 2673.552001953125 2746.26708984375 2827.051025390625 2902.989013671875 2920.986083984375 2900.498046875 2877.785888671875 2886.172119140625 2897.73388671875 2903.865966796875 2900.135986328125 2919.9541015625 2967.988037109375 3021.64794921875 3097.660888671875 3164.493896484375 3239.031005859375 3318.785888671875 3402.85107421875 3365.172119140625 3335.114990234375 3320.64208984375 3299.89599609375 3286.48291015625 3283.60693359375 3288.2470703125 3296.0419921875 3298.416015625 3299.714111328125 3305.9951171875 3319.43896484375 3337.5859375 3272.177001953125 3196.304931640625 3133.791015625 3063.884033203125 3003.943115234375 2963.7490234375 2938.7919921875 2923.3759765625 2896.279052734375 2868.205078125 2835.2109375 2774.533935546875 2726.948974609375 2700.4189453125 2705.947021484375 2692.98388671875 2673.450927734375 2643.680908203125 2633.412109375 2624.01708984375 2624.14697265625 2647.577880859375 2714.8779296875 2718.965087890625 2680.7509765625 2630.721923828125 2577.117919921875 2514.740966796875 2455.089111328125 2411.634033203125 2356.080078125 2341.47412109375 2372.199951171875 2446.297119140625 2482.662109375 2418.2119140625 2371.902099609375 2396.85205078125 2407.157958984375 2343.277099609375 2305.1669921875 2282.302001953125 2291.9970703125 2288.98193359375 2270 2270.614990234375 2298.636962890625 2317.9580078125 2334.902099609375 2350.537109375 2370.958984375 2382.076904296875 2390.0458984375 2410.611083984375 2350.385986328125 2327.008056640625
2705.6669921875 2652.875 2627.64697265625 2601.4990234375 2581.0419921875 2526.010009765625 2498.549072265625 2478.712890625 2457.176025390625 2433.6201171875 2412.8701171875 2402.718994140625 2395.238037109375 2367.5849609375 2339.5419921875 2315.010986328125 2290.7080078125 2251.049072265625 2208.541015625 2180.218994140625 2157.18408203125 2151.89892578125 2151.48388671875 2170.325927734375 2204.89306640625 2235.470947265625 2213.743896484375 2153.9609375 2092.577880859375 2052.68896484375 2042.1800537109375 2049.048095703125 2081.881103515625 2107.90087890625 2134.155029296875 2176.302978515625 2249.39306640625 2324.931884765625 2396.134033203125 2435.534912109375 2462.092041015625 2478.051025390625 2546.780029296875 2626.200927734375 2704.66796875 2778.998046875 2832.462890625 2854.87890625 2868.389892578125 2849.593994140625 2826.736083984375 2825.0048828125 2819.6298828125 2785.743896484375 2745.51708984375 2711.49609375 2691.37890625 2664.464111328125 2659.68994140625 2638.990966796875 2614.819091796875 2584.41796875 2586.43408203125 2625.93603515625 2676.944091796875 2771.760986328125 2834.8798828125 2924.297119140625 2952.4609375 2928.410888671875 2914.97607421875 2894.297119140625 2829.677001953125 2775.846923828125 2712.864013671875 2628.428955078125 2535.553955078125 2468.427978515625 2419.990966796875 2392.861083984375 2395.64990234375 2393.6220703125 2392.12109375 2414.827880859375 2460.533935546875 2511.884033203125 2575.844970703125 2657.738037109375 2739.173095703125 2816.464111328125 2865.3779296875 2842.544921875 2822.364013671875 2833.08203125 2852.7470703125 2862.97802734375 2871.06005859375 2884.318115234375 2921.27197265625 2981.222900390625 3051.2451171875 3120.037109375 3216.580078125 3315.342041015625 3390.883056640625 3371.68505859375 3325.550048828125 3307.35205078125 3294.904052734375 3277.572998046875 3268.69189453125 3268.162109375 3273.637939453125 3282.31298828125 3285.958984375 3288.264892578125 3296.35595703125 3318.053955078125 3358.638916015625 3311.986083984375 3240.346923828125 3174.02587890625 3097.544921875 3026.575927734375 2973.967041015625 2930.623046875 2898.384033203125 2880.509033203125 2860.35791015625 2814.610107421875 2760.027099609375 2706.64306640625 2663.2041015625 2643.52490234375 2642.572998046875 2633.514892578125 2608.549072265625 2585.653076171875 2582.861083984375 2591.139892578125 2601.19091796875 2650.033935546875 2639.138916015625 2595.720947265625 2548.803955078125 2526.64892578125 2478.68603515625 2413.72705078125 2370.157958984375 2318.382080078125 2307.280029296875 2369.675048828125 2406.58203125 2395.0400390625 2344.08203125 2313.906982421875 2306.264892578125 2303.431884765625 2267.343994140625 2235.97509765625 2223.6279296875 2227.72900390625 2231.072021484375 2214.044921875 2207.83203125 2211.60400390625 2228.98291015625 2249.089111328125 2275.5009765625 2285.946044921875 2305.47705078125 2329.7451171875 2347.673095703125 2285.8330078125 2316.047119140625
2702.531982421875 2651.7099609375 2609.22705078125 2577.114990234375 2551.498046875 2524.2919921875 2501.302978515625 2481.055908203125 2462.625 2446.77099609375 2439.4189453125 2438.388916015625 2430.865966796875 2395.4169921875 2369.260009765625 2331.672119140625 2309.762939453125 2280.575927734375 2246.01611328125 2208.714111328125 2175.85595703125 2148.173095703125 2133.533935546875 2129.31396484375 2142.43505859375 2172.736083984375 2196.970947265625 2160.5458984375 2100.9970703125 2051.30810546875 2036.6639404296875 2036.7349853515625 2059.677001953125 2080.97509765625 2095.926025390625 2133.986083984375 2206.39794921875 2262.705078125 2329.748046875 2371.18310546875 2393.864013671875 2471.715087890625 2564.89501953125 2649.02294921875 2708.77099609375 2755.89404296875 2745.964111328125 2769.904052734375 2831.94189453125 2864.23095703125 2817.93603515625 2800.697998046875 2776.007080078125 2801.905029296875 2777.93603515625 2709.632080078125 2666.365966796875 2634.239013671875 2621.44189453125 2600.64794921875 2587.219970703125 2566.35595703125 2563.06591796875 2590.570068359375 2646.87890625 2722.991943359375 2815.737060546875 2903.39990234375 2936.721923828125 2917.013916015625 2892.087890625 2827.136962890625 2751.218994140625 2696.509033203125 2640.928955078125 2576.613037109375 2488.381103515625 2419.115966796875 2390.39697265625 2366.827880859375 2368.27392578125 2365.135986328125 2369.220947265625 2394.422119140625 2430.7958984375 2476.158935546875 2556.29296875 2636.5458984375 2717.299072265625 2803.611083984375 2832.35791015625 2804.903076171875 2814.882080078125 2823.23291015625 2830.719970703125 2843.56103515625 2862.864013671875 2883.2529296875 2936.176025390625 3018.965087890625 3105.428955078125 3157.89208984375 3243.553955078125 3321.427978515625 3388.75390625 3335.555908203125 3308.613037109375 3292.722900390625 3282.240966796875 3266.968017578125 3256.031005859375 3255.73388671875 3259.93701171875 3267.64599609375 3272.48193359375 3275.972900390625 3285.202880859375 3327.468994140625 3385.864990234375 3340.12890625 3281.716064453125 3207.64697265625 3139.5458984375 3069.427001953125 3012.7470703125 2986.696044921875 2911.906005859375 2870.344970703125 2826.14599609375 2778.113037109375 2741.56103515625 2689.56201171875 2645.2529296875 2614.116943359375 2601.450927734375 2596.47607421875 2578.7958984375 2550.5830078125 2533.492919921875 2544.98388671875 2532.10498046875 2554.1640625 2536.632080078125 2490.905029296875 2461.85595703125 2438.85595703125 2402.777099609375 2363.31103515625 2325.360107421875 2274.095947265625 2260.97998046875 2325.85888671875 2318.968994140625 2295.94091796875 2262.840087890625 2245.239990234375 2218.26904296875 2209.738037109375 2179.222900390625 2159.162109375 2156.27490234375 2165.698974609375 2173.4560546875 2161.385986328125 2155.263916015625 2145.949951171875 2155.1259765625 2176.196044921875 2183.117919921875 2208.138916015625 2234.262939453125 2265.14990234375 2273.486083984375 2237.7490234375 2271.072021484375
2706.055908203125 2646.839111328125 2600.114990234375 2563.547119140625 2539.60107421875 2522.4208984375 2507.35888671875 2503.45703125 2499.47900390625 2467.071044921875 2458.1669921875 2466.4140625 2470.7490234375 2466.212890625 2413.76708984375 2345.91796875 2325.2470703125 2305.614013671875 2266.888916015625 2234.9619140625 2198.178955078125 2172.177978515625 2146.884033203125 2119.373046875 2109.4609375 2112.22705078125 2122.362060546875 2111.64697265625 2084.64404296875 2053.462890625 2034.8590087890625 2029.823974609375 2033.3389892578125 2061.79296875 2066.2041015625 2097.010986328125 2150.64697265625 2211.85009765625 2259.320068359375 2303.02490234375 2387.412109375 2459.472900390625 2523.468017578125 2590.952880859375 2678.18310546875 2684.278076171875 2673.294921875 2708.679931640625 2778.14794921875 2846.0419921875 2787.423095703125 2749.80908203125 2728.955078125 2744.75 2742.617919921875 2718.43603515625 2652.41796875 2609.708984375 2594.48193359375 2564.343994140625 2540.282958984375 2518.053955078125 2532.364990234375 2568.193115234375 2625.839111328125 2719.4580078125 2789.326904296875 2861.2470703125 2916.549072265625 2902.43310546875 2875.18798828125 2828.614990234375 2745.798095703125 2673.928955078125 2587.467041015625 2513.429931640625 2444.779052734375 2382.364990234375 2349.6259765625 2339.135009765625 2333.7509765625 2341.337890625 2345.326904296875 2363.0869140625 2394.035888671875 2451.133056640625 2526.949951171875 2629.535888671875 2713.97900390625 2783.486083984375 2799.501953125 2796.299072265625 2805.81494140625 2815.927001953125 2820.677001953125 2836.925048828125 2861.39599609375 2897.5 2962.6240234375 3043.572998046875 3134.946044921875 3231.60693359375 3278.35595703125 3333.68603515625 3360.27490234375 3336.971923828125 3304.9951171875 3283.739013671875 3272.97900390625 3255.423095703125 3240.340087890625 3242.26904296875 3248.906005859375 3254.9169921875 3259.6630859375 3261.5419921875 3270.09912109375 3327.31201171875 3391.802001953125 3355.197998046875 3281.97705078125 3216.14501953125 3158.44091796875 3092.64306640625 3035.49609375 3003.873046875 2964.97509765625 2911.2490234375 2841.126953125 2773.972900390625 2716.2080078125 2670.64404296875 2634.7080078125 2602.547119140625 2579.7880859375 2564.2490234375 2553.514892578125 2528.053955078125 2493.527099609375 2484.98388671875 2466.81494140625 2442.10595703125 2419.679931640625 2385.64599609375 2369.846923828125 2346.47998046875 2318.97802734375 2289.491943359375 2246.076904296875 2207.001953125 2194.285888671875 2226.430908203125 2219.9150390625 2203.532958984375 2188.072998046875 2170.241943359375 2152.717041015625 2124.221923828125 2100.822998046875 2090.3720703125 2092.916015625 2110.7451171875 2117.08203125 2112.382080078125 2107.31201171875 2099.60595703125 2098.22802734375 2111.830078125 2119.781982421875 2139.5830078125 2159.680908203125 2194.551025390625 2198.739990234375 2203.839111328125 2209.781005859375
